ncols         174
nrows         75
xllcorner     108.561853929
yllcorner     27.825316854
cellsize      0.00144717254
NODATA_value  -9999
-9999 -9999 -9999 -9999 -9999 1483.333 1487.957 1464.84 1374.68 1299.4 1244.6 1214.64 1156.56 1149.2 1190.6 1182.28 1165.16 1257 1353.6 1365.44 1345.12 1335.72 1300.2 1195.28 1105.28 1060.6 976.12 897.04 851.72 835.32 837.92 828 871.28 932.96 995.76 1053.64 1106.88 1124.68 1136 1174.84 1199.8 1239.48 1279.44 1299.4 1296.44 1319.92 1308.56 1294.68 1337.68 1339.28 1336.08 1286.28 1327.08 1353.12 1383.36 1398.24 1445.8 1482 1487.72 1526.52 1563.8 1599.44 1665.48 1730.32 1776.32 1787.72 1734.64 1716.8 1715.48 1685.04 1677.08 1668.08 1694.48 1735.52 1792.84 1841.92 1920.4 1985.04 2050.56 2148.44 2194.96 2215.4 2208.04 2228.2 2208.08 2143.64 2121.28 2079.92 2018.28 1971.32 2038.44 2082.72 2061.04 2079.84 2114.76 2184.44 2262.88 2275.96 2268.04 2273.6 2314.24 2277.8 2204.52 2095.12 2015.16 1951.36 1911.56 1864.72 1856.8 1801.12 1764.52 1775.16 1811.56 1868.36 1887.32 1885.6 1927.24 1946.76 1932.4 1902.32 1859.92 1814.44 1763.52 1706.92 1651.44 1573.08 1500.16 1422 1335.76 1246.68 1165.2 1116.08 1075.72 1066.2 1041.76 1055.32 1054.44 971.64 903.24 882.44 853.84 821.12 773.08 826.24 870.36 913.64 951.32 944.48 934.08 934.76 940.4 919.56 820.96 754.04 716.84 701.92 733.76 766.24 772.72 785 802.5 -9999 -9999 -9999 -9999 -9999 -9999 -9999 -9999 -9999 -9999 -9999 -9999 -9999
-9999 -9999 -9999 -9999 -9999 -9999 1500.05 1494.36 1443.12 1367.28 1284.68 1231.8 1193.84 1202.08 1240.68 1237.96 1225.72 1316.4 1321.68 1257.84 1222.92 1231.48 1237.24 1144.6 1055.24 980.2 921.92 855.52 813.48 814 833.84 836.96 859.08 895.56 938.24 1003.08 1067.8 1113.52 1144.8 1175.8 1224.04 1261.64 1298.96 1334.96 1349.92 1361.96 1377.68 1361.6 1395.12 1421.56 1406.4 1358.56 1386.52 1416.12 1438.04 1455.56 1481.84 1517.8 1537.8 1555.48 1599.24 1652.56 1698.76 1730.16 1766.52 1737.64 1670.32 1608.2 1626.96 1574.32 1553.88 1583.84 1650 1706.24 1743.84 1780 1842.68 1908.76 2007.04 2085.24 2108.04 2119.56 2147.52 2226.28 2256.04 2253.12 2208.12 2139.2 2048.64 1985.92 1989.36 2023 2062.24 2127.28 2158.32 2195.48 2310.2 2378.56 2362.36 2331.36 2266.8 2185.96 2139.76 2056.76 1959.8 1893.48 1844.68 1811.08 1802.24 1759.24 1735.2 1712.8 1751 1806.72 1796.76 1805.76 1862.36 1902.28 1936.36 1933.36 1885.6 1831.56 1778.36 1705.52 1623.08 1542.96 1462.32 1386.6 1303 1221.2 1189.44 1141.32 1149.2 1157.8 1111.56 1109.8 1095 1025.96 976.56 915.64 863.36 851.2 820.08 768.36 810.4 878.28 878.68 857.76 861.32 848.56 844.16 849.36 833 736.08 703 732.6 726.96 702.72 706.3077 733.5 -9999 -9999 -9999 -9999 -9999 -9999 -9999 -9999 -9999 -9999 -9999 -9999 -9999 -9999
-9999 -9999 -9999 -9999 -9999 -9999 1540.35 1555.28 1513.6 1423.08 1362.84 1319.08 1270.56 1301.04 1364.8 1348.92 1337.12 1370.16 1292.56 1216.04 1166.44 1147.32 1130.48 1067.36 994.24 911.4 870.72 854 836.52 833.52 891.28 903.52 887.56 896.4 877.36 880.44 935.8 1004.8 1070.24 1123.28 1170.68 1224.12 1259.04 1309.4 1351.08 1371.6 1392.44 1425.92 1438.28 1463.48 1474.32 1442.72 1418.96 1441.44 1462.28 1503 1531.28 1570.16 1597.48 1592.48 1592.16 1611.92 1610.8 1618.68 1650.44 1632.92 1543.2 1507.56 1503.04 1479.64 1430.76 1508.96 1568.12 1597.96 1625.76 1677.96 1744.12 1848.76 1915.32 1962.72 1987 2004.56 2082.4 2195.28 2225.04 2273 2260.76 2205.28 2122.92 2060.44 2056.64 2084.88 2139.08 2170.12 2220.56 2294.44 2358.24 2385.16 2325.68 2251.48 2172.36 2115 2039.48 1998.96 1942.72 1868.2 1798.76 1765.28 1757.16 1724.36 1678.64 1660.36 1696.24 1731.48 1708.08 1742.2 1787.2 1848.48 1901.88 1926.36 1879.88 1821.32 1762.16 1678.16 1593.6 1531.04 1456.92 1378.44 1291.92 1254.24 1203.48 1176.72 1209.32 1173.12 1196.72 1197.6 1157.8 1061.32 985.72 946.64 916.88 901.88 844.64 769.56 759.96 818.96 808.8 747.68 769.04 813.72 794.68 781.28 813.92 751.48 692.92 693.84 691.2083 685.3333 704.8182 676.6 673.4667 677.1667 -9999 -9999 -9999 -9999 -9999 -9999 -9999 -9999 -9999 -9999 -9999 -9999
-9999 -9999 -9999 -9999 -9999 1512.5 1530.375 1538.2 1511.12 1464.32 1446.72 1408.72 1402.32 1419.32 1431.88 1415.48 1412.08 1402.56 1329.6 1285.08 1236.88 1163.16 1071.2 995 931.48 904.2 920.88 923.4 898.72 887.36 900.12 909.12 975.04 1014.56 999.56 910.52 871.48 919.64 962.56 1018.72 1072.24 1155.2 1218.28 1234 1261.76 1284 1322.16 1390.36 1437.32 1468.68 1488.52 1468.76 1402.96 1386.64 1427.56 1480.76 1524.56 1539 1502.36 1473.36 1476.2 1466.24 1483.72 1459.76 1471.04 1512.84 1413.96 1423.84 1415.92 1359.08 1332.68 1374.88 1431.28 1470.16 1551.68 1630.28 1707.88 1757.6 1782.12 1840.88 1876.52 1956.6 2054.44 2101.12 2164.88 2204.24 2240.72 2245.04 2209.92 2144.76 2129.6 2129.96 2161.48 2249.2 2305 2347.32 2315.28 2252.6 2203.4 2153.84 2088.2 2038.56 1980.4 1926.04 1914.68 1857.4 1792.56 1717.68 1687.56 1691.28 1655.28 1600.88 1614.72 1631.8 1637.84 1679.6 1712.08 1791.56 1860.08 1885.8 1883.8 1830.76 1762.52 1677.28 1619.16 1545.04 1459.72 1374.56 1324.76 1272.36 1235.56 1273.96 1235.84 1234.36 1276.12 1243.32 1190.64 1123.2 1078.24 1048.48 970.24 907.96 872.48 808.72 766.72 741.36 728.56 731.6 736.92 729.68 747.24 716.16 745.6 756.92 726.16 714.12 752.7143 786.375 761.12 711.52 697.68 668.12 719.2308 786.5 -9999 -9999 -9999 -9999 -9999 -9999 -9999 -9999 -9999 -9999
-9999 -9999 -9999 -9999 -9999 1467.923 1467.76 1438.76 1407.56 1390.52 1403.04 1387.88 1399.44 1431.92 1390.4 1391.52 1405.88 1374.4 1330.88 1282.2 1234.84 1162.2 1108.04 994.68 934.24 968.04 980.76 988.92 932.32 938.88 958.24 889.64 936.96 1014.2 1059.96 1026.68 957.76 914.72 915.44 937.92 1019.52 1084.84 1106.88 1110.64 1149.16 1206.64 1259.68 1326.64 1374.76 1365.16 1331.8 1296.2 1274 1301.36 1351.84 1373.24 1387.88 1396.56 1374.32 1356.44 1312.28 1325.48 1380.44 1356.36 1390 1439.24 1354.88 1341.4 1341.8 1263.04 1250.44 1281.72 1320.96 1389.96 1475.16 1517.16 1583.32 1630.08 1692.88 1726.68 1830.84 1915.44 1956.56 2018 2062.72 2110.72 2185.08 2269.76 2286.24 2239.32 2237.32 2226.92 2241 2279.96 2345 2334.68 2260.24 2191.04 2150.32 2113.32 2049.44 1984.12 1925.4 1881.68 1823.08 1785.4 1761.6 1681.96 1632.92 1622.32 1624.6 1562.28 1530.6 1546.44 1577.92 1596.48 1670.52 1769.56 1828.16 1827.12 1847.12 1833.52 1772.64 1706.96 1634.04 1544.52 1471.96 1410.88 1333.12 1296.24 1322.16 1337.88 1282.56 1305.64 1356 1297.8 1234.16 1167.12 1108.92 1059.72 1023.28 973.88 919.84 883.84 841.36 831.72 820.92 828.24 811.44 763.88 729.16 706.96 694.36 680.12 683.6 681.52 724.08 751.8 766.68 727.68 684.64 673.52 722.6 786.2 802.5294 -9999 -9999 -9999 -9999 -9999 -9999 -9999 -9999 -9999
-9999 -9999 -9999 -9999 -9999 1467.65 1475.12 1446.36 1380.68 1322.96 1294.76 1276.16 1297.8 1338.36 1341.64 1374.92 1407.4 1345.6 1273.04 1212.12 1171.24 1124.8 1055 981.12 997.08 1044.44 1057.04 1010.96 948.44 995.12 991.08 914.12 933.04 1007.48 1088.68 1101.8 1024.04 983.84 990.6 944.68 919.96 948.24 962 1005.36 1045.24 1111.72 1182.6 1240.92 1246 1174.92 1174.64 1159.08 1149.24 1196.44 1208.44 1215.16 1244.48 1292.2 1267.72 1242.12 1202.96 1242.24 1261.32 1236.44 1283.04 1309.12 1276.04 1236.72 1228.64 1242.84 1314.36 1386.92 1366.12 1357.88 1386.4 1432.2 1468.04 1523.48 1585.4 1684.84 1782.24 1831.04 1859.36 1901.92 2007.44 2118.72 2243.68 2325.28 2359.2 2346.08 2345.08 2336.6 2352.68 2343.52 2309.96 2276.32 2232.48 2151.92 2099.32 2070.16 2050.96 1986.28 1928 1886.64 1826.84 1737.08 1692.64 1647.24 1647.76 1610.36 1542.8 1507.12 1477.96 1483.8 1508.6 1597.28 1707 1782.24 1780.44 1724.6 1732.8 1749.56 1746.8 1712.8 1632.32 1537.16 1464.32 1398.24 1382.92 1384.92 1428.16 1416.76 1383.16 1400.28 1417.72 1336.04 1250.2 1194.6 1177.76 1140.08 1085.8 1030.4 998.4 969.64 909.92 929.84 929.72 941.88 896.68 851.8 799.52 791.8 772.64 751.64 767.44 709.88 668 684.32 692.92 677.16 672.52 671.32 722.92 772.36 807.7619 -9999 -9999 -9999 -9999 -9999 -9999 -9999 -9999 -9999
-9999 -9999 -9999 -9999 1454 1476.667 1481.84 1447.2 1389.68 1333.72 1268.04 1211.92 1221.44 1268.04 1313.68 1342.96 1373.24 1323.8 1252.2 1198.4 1145.2 1083.24 1020.32 1033.12 1077.68 1107.52 1107.64 1057.36 986.44 1035.76 1042.32 978.24 935.88 955.32 1039.48 1102.4 1057.32 1040.72 1066.76 1056.44 1003.52 966.56 912.8 938 970.88 1040.36 1094.04 1103.12 1073.76 1024.32 1024.2 1033.12 1042.48 1061.08 1075.44 1098.96 1131.52 1169.92 1142 1119.2 1109.96 1120.48 1115.24 1116 1145.2 1186.16 1184.4 1198.84 1246.96 1342.28 1431.84 1487.04 1532.32 1485.2 1473.68 1553.16 1571.56 1592.76 1576.16 1623.12 1685.4 1770.6 1853.8 1973.56 2055.12 2150.44 2291.16 2332 2369.12 2403.24 2418.8 2441.72 2437.48 2326.4 2227.52 2169.44 2158.12 2126.56 2061.92 1979.2 1989.44 1967.68 1919.12 1860.32 1803.84 1775.52 1735.76 1706.28 1671.96 1605.44 1543.76 1491.44 1443.4 1410.08 1491.96 1601.24 1683.88 1694.32 1703.12 1670.28 1625.36 1638.44 1633.64 1656.32 1626.04 1582.32 1517.88 1493.48 1516.04 1509.2 1541.16 1501.68 1494.6 1509.2 1462.08 1386.72 1335.24 1306.64 1264.92 1197.36 1157.92 1129.32 1092.56 1047.48 1017.72 1030.96 1061.36 1050.12 994.24 946.56 916.6 892.96 901.68 886.8 840.56 768.32 688.64 648.32 670.6 676.36 666.84 657.36 696.96 781.96 841.8235 -9999 -9999 -9999 -9999 -9999 -9999 -9999 -9999 -9999
-9999 -9999 -9999 -9999 1481.765 1514.44 1487.8 1417.48 1353.88 1293.2 1252.12 1211.16 1187.96 1224.56 1279.44 1262.44 1240.44 1262 1267.84 1264.56 1218.24 1151.52 1094.68 1114.52 1150.24 1181.56 1172.64 1080.04 1024.68 1067.36 1090.68 1060 1010.08 957.32 994.52 1079.04 1102.44 1099.56 1121.08 1117.08 1082.92 1068.24 1027.8 1016.52 964.64 954.8 961 957.92 975 998.44 1038.52 1031.76 1040.72 1041.28 1045.4 1053.68 1063.68 1072 1075.8 1127 1162.28 1187.52 1211.28 1174.68 1147.52 1175.6 1206.92 1273.48 1359.64 1412.8 1522.4 1590.56 1637.08 1593.44 1578.28 1650.44 1691.72 1728 1713 1718.72 1707.44 1769.96 1871.36 2025.36 2115.48 2190.36 2269 2304.76 2360.84 2415.88 2456.36 2436.2 2374.04 2251.64 2160.88 2098.72 2064.16 2064.56 2016.96 1922.76 1871.76 1901.8 1891.12 1868.56 1818.88 1786.2 1742.28 1685.36 1623.52 1564.84 1518.16 1449.16 1383.48 1390.92 1485.04 1555.88 1589.92 1589.84 1615.2 1625.36 1528.08 1492.04 1522.08 1528.24 1548.76 1555 1585.76 1589.36 1594.04 1593.76 1587.52 1579.48 1571.44 1587.6 1554.8 1499.88 1468 1418.84 1349.92 1308.24 1279.72 1234.64 1199.96 1177.96 1140.8 1153.16 1175.28 1161.04 1095.24 1057.56 1048.68 994.48 992.36 940.4 848.24 772.56 690.4 641.88 696.08 735.6 700.0417 711.28 759.72 806.96 790.6818 -9999 -9999 -9999 -9999 -9999 -9999 -9999 -9999 -9999
-9999 -9999 -9999 1470.8 1494.625 1528.8 1514.84 1468.84 1394.2 1327.08 1304 1271.68 1194.88 1177.36 1231 1233.24 1190.4 1171.88 1208.44 1256.4 1210.48 1180.52 1171.16 1190.12 1215.72 1238.72 1206.12 1147.48 1107.52 1110.56 1120.04 1083.04 1050.48 971.64 1006.6 1074.48 1112.72 1134.04 1154.16 1164.76 1162.52 1160.52 1133.96 1108.32 1040.88 1001.44 1025.68 1035.48 1040.76 1088.6 1108.12 1141.76 1154.28 1154.04 1132.6 1147.56 1163.56 1174.2 1198 1228.52 1285.12 1331.32 1372.4 1359.88 1308.6 1294.76 1308.12 1323.52 1398.52 1492.64 1572.32 1683.4 1752.2 1721.48 1673.72 1704.24 1780.08 1824.88 1818.8 1827.36 1801.48 1829.16 1884.2 1980.32 2095 2190.72 2262.24 2320.52 2376.8 2407.72 2439.92 2411.76 2335.48 2241.32 2168.08 2090.16 2014.48 1967.16 1959.68 1869.76 1789.8 1808.68 1842.48 1854.08 1793.6 1734.6 1694.56 1646.28 1591.32 1543.2 1510.8 1471 1399.6 1355.64 1402.68 1443.88 1466.12 1474.88 1528.88 1540.72 1442.88 1387.2 1415.92 1428.72 1474.72 1487.04 1517.24 1527 1504.32 1474.24 1527.6 1533.36 1535.4 1539.92 1533.32 1492.6 1443.2 1392.52 1340.32 1309.16 1284.24 1244.12 1219.12 1182.68 1136.96 1092.32 1074 1070.08 1093.4 1131.28 1127.04 1101.56 1045.4 959.24 868.84 785.28 706.4 657.08 649.76 649.24 650.85 717.2222 728.4117 739.28 750.4615 -9999 -9999 -9999 -9999 -9999 -9999 -9999 -9999 -9999
-9999 -9999 -9999 1473.385 1501.64 1485.24 1457.12 1434.24 1401.2 1391.84 1375.2 1332.56 1257.08 1179.64 1145.32 1146.72 1145.52 1113.84 1117.68 1159.68 1139.08 1148.44 1184.44 1205.52 1206.12 1190.24 1120.12 1107.36 1119.2 1137.44 1124.08 1071.56 1020.8 988.24 1043.76 1102.4 1157.52 1156.48 1165.6 1197.04 1223.72 1225.96 1198.2 1191.44 1139.92 1092.68 1065.2 1119.32 1105 1135.92 1161.56 1188.96 1235.12 1237.32 1215.84 1217.64 1230.68 1251.68 1285.72 1296.24 1346.92 1414.4 1489.48 1504.64 1451.4 1416.48 1422.08 1395.92 1416.68 1526.36 1622.36 1704.72 1815.6 1835.28 1785.28 1767.84 1815.68 1889.36 1906.16 1928.04 1922.16 1944.32 1987.36 2069.2 2172.44 2250.32 2316.16 2381.6 2427.76 2452.84 2464.52 2403.56 2292.44 2222.72 2149.2 2097.64 2023.64 1931.76 1897.32 1858.16 1762.2 1724.68 1784.84 1809.08 1785.64 1733.88 1690.36 1655.08 1622.8 1565.44 1506.84 1445.48 1387.72 1318.96 1275.8 1306.64 1331.08 1380.16 1469.08 1441.8 1364.72 1333.16 1310.16 1351.04 1404.6 1380 1393.44 1414.56 1365.28 1348.2 1452.24 1471.84 1456.8 1483.88 1484.28 1452.88 1410.32 1349.92 1283.28 1227.08 1196.44 1163.4 1120.88 1074.32 1054.52 1005.96 969 954.4 991.96 1026.56 1019.24 1005 1031.04 991 906.88 842.52 766.84 709.32 714.52 720.24 696.75 677.3913 645.7083 645.5294 641.2222 -9999 -9999 -9999 -9999 -9999 -9999 -9999 -9999 -9999
-9999 -9999 1463 1467.762 1478.2 1418.76 1385.6 1352.16 1315.24 1305.24 1309.16 1308.56 1265.68 1206.08 1158.24 1124.56 1096.84 1075.6 1056.72 1056.68 1079.36 1078.44 1084.92 1094.44 1068.04 1095.72 1033.12 1036.8 1031.4 1035.56 1007.56 994.08 997.08 1028.72 1080.16 1139.52 1177.48 1174.36 1187.64 1215.36 1243.44 1269.24 1254.6 1271.68 1245.8 1167.6 1136.4 1150.56 1187.4 1169.72 1201.32 1237.68 1285.84 1298.24 1273.44 1265.92 1282.6 1292.68 1327.72 1333.64 1389.2 1432.56 1514.36 1602.2 1601.16 1572.68 1534 1495.24 1461.16 1543.16 1624.24 1704 1824.24 1917.04 1904.28 1881.56 1926.36 1958.08 1999.52 2039.52 2026.52 2034.48 2083.6 2180.6 2214.32 2227.64 2260.64 2321.16 2420.92 2459.32 2461.88 2370.68 2268.08 2178.16 2092.32 2037.72 1984.24 1941.52 1865.52 1807.4 1744.84 1671.32 1722.24 1770.36 1780.04 1737.8 1697.76 1655.52 1621.84 1601.04 1555.16 1493.44 1428.88 1329.88 1237.92 1204.36 1250.64 1315.96 1369.2 1346.8 1281.24 1244.64 1209.24 1292.68 1337.08 1279.12 1280.28 1281.64 1234.52 1275.16 1379.56 1375.56 1363.56 1361.32 1389.36 1421.8 1455.88 1422.12 1362.4 1263.28 1212.8 1174.68 1136.64 1097.68 1038.64 1013.92 984.24 928.16 915.8 913.28 906.36 891.24 924.48 959.84 952.08 891.16 832.48 790.28 760.88 745.32 744.28 722.4 693.6 647.8 652.96 641.8421 626.3333 746.5833 776.7857 790.6667 -9999 -9999 -9999 -9999
-9999 1480.5 1507.286 1501.08 1485.68 1434.84 1364.96 1296.12 1256.6 1207.08 1201.08 1242.36 1286.76 1291.28 1267.6 1233.84 1187.2 1155.32 1124.72 1087.68 1039.04 1033.76 1028.48 1008.88 1001.6 1013.56 1008.4 1012.28 1057.4 1091.48 1043.68 1022.96 1045.08 1088.84 1128.56 1183.56 1213.24 1218.36 1222.36 1237.4 1264.44 1290.96 1306.4 1321.36 1301.08 1255.92 1229.12 1184 1225.04 1240.12 1233.24 1271.8 1315 1328.04 1316.52 1323.04 1355.96 1392.12 1417.32 1412.16 1474 1555.48 1576.36 1637.96 1709.84 1702.08 1664.52 1637.52 1597.88 1596.4 1657.16 1735.44 1824.8 1937.68 1994.92 1986.56 2018.28 2066.8 2089.36 2109.12 2095.04 2105.72 2123.44 2115.56 2085.48 2119.84 2155.48 2203.28 2265.32 2394.88 2457.48 2370.12 2254.96 2146.72 2073.64 1997.56 1932.92 1908.36 1854 1775.44 1697.36 1618.12 1675.32 1741 1779.76 1753.32 1707.36 1676.76 1621.8 1575.68 1538.28 1472.52 1396.6 1315.28 1247.12 1190.8 1156 1208.72 1222.96 1218.12 1199.76 1122.12 1160.68 1272.68 1274.36 1192.96 1163.08 1163.96 1130.8 1224.16 1260.84 1268.76 1267.68 1259.16 1253.28 1284.16 1339.84 1365.04 1402.64 1365.2 1330.68 1266.88 1251.88 1201.68 1116.64 1109.96 1072 987.12 913.44 877.76 847.72 819.52 817 860.48 898.76 881.6 858.12 820.24 796.16 797.28 801.24 789.04 770.84 742.88 740.44 704.84 642.6 666.28 720.2 774.9 -9999 -9999 -9999 -9999
-9999 1479 1489.4 1487.08 1429.32 1379.28 1317.64 1263.12 1227.76 1183.16 1158.4 1169.52 1235.28 1273.08 1251.44 1195.28 1157.2 1132.24 1121.8 1107.32 1071.12 1017.48 1005.32 1011.56 1028.92 1003.48 1029.24 1054 1086.96 1149 1105.36 1059.36 1088.84 1126.48 1159.12 1212.52 1245.32 1250.32 1267.04 1256.96 1285.28 1326.2 1351.48 1382.88 1386.8 1354.44 1301.16 1246.84 1245.76 1273.12 1279.52 1296.48 1345.2 1355.64 1368.56 1396 1453.2 1527.92 1561.24 1521.04 1528.48 1615.8 1681.36 1685.24 1752.04 1811.64 1796.4 1748.88 1738.32 1712 1756.2 1825.72 1862.04 1939.2 2019.32 2066.76 2086.04 2093.24 2082.24 2022.8 1982.96 2027.08 2026.64 2020.2 2003.24 2038.68 2097.64 2135.92 2201.68 2278.84 2368.64 2307.32 2215.68 2135.16 2063.56 1976.2 1928.16 1862.16 1795.16 1713.96 1615.84 1556.84 1595.12 1649.16 1710.2 1738.64 1699.16 1662.04 1620.88 1587.56 1540.12 1474.52 1424.4 1355.68 1302.4 1244.2 1140.28 1108.36 1086.28 1082.28 1064.96 1045.52 1142.92 1243.52 1256.96 1151.28 1083.72 1046.12 1068.2 1135.16 1182.36 1204.72 1156.8 1138.68 1128.2 1140.92 1173.36 1209.12 1306.72 1400.88 1406.68 1357.24 1336.04 1263.32 1253.4 1234.96 1150.44 1074.52 1007.28 984.16 969.32 893.64 801.84 784.44 795.44 789.32 808 811.84 778.64 739.76 737.48 763.72 791.84 826.8 822.72 769.08 719.64 649.16 638 651.1053 643.3 -9999 -9999 -9999
-9999 1343 1410.043 1455.44 1420.2 1364.28 1338.28 1289 1252.4 1216 1166.08 1127.16 1155.36 1204.52 1191.92 1116.96 1069.8 1080.48 1075.96 1064.12 1044.4 1016.96 1014.68 1040.8 1067.6 1035.84 1043.72 1063.76 1093.88 1153.2 1140.64 1102.68 1130.44 1161.4 1196.8 1231.24 1274.32 1290.24 1305.68 1300 1306.4 1357.76 1388.48 1431.64 1442.72 1436.56 1378 1337.6 1329.48 1316.48 1325.24 1327.32 1374.16 1393.64 1407.48 1444.24 1484.92 1538.24 1597.56 1605.44 1609.88 1684.56 1756.52 1774.24 1771.4 1853.04 1872.68 1848.28 1845.6 1855.44 1865.24 1918.6 1977.32 1995.36 2015.32 2027.76 2023 2001.24 1973.68 1916.08 1883.04 1943.4 1922.88 1922.6 1914.72 1969.04 2011.44 2065.52 2169.04 2232.64 2342.88 2275.36 2164.72 2092.04 2037.88 1942.48 1875 1821.2 1779.68 1733.04 1618.32 1547.76 1510.92 1564.2 1641 1676.84 1665.28 1633.56 1590.32 1575.76 1553.96 1491.56 1426.48 1372.04 1317.76 1234.16 1167.04 1124.2 1043.16 960.84 953.56 998.64 1097.56 1211.76 1242.96 1133.84 1058.36 991.16 982.2 1019.96 1115.2 1143.92 1079.72 1056.6 1058.96 1028.48 1061.96 1103 1193.32 1245.6 1306.76 1396.12 1406.68 1370.32 1327.76 1244.48 1152.16 1098.08 1032.2 978.12 917.72 879.52 826.72 776.44 739.96 724.72 718.68 731.04 719 686.64 664.96 672.56 729.64 787.4 731.04 685.72 650.68 637.08 626.56 632.92 620.44 630 -9999 -9999
-9999 1335 1356.88 1385.64 1343.52 1285.32 1246.36 1211.24 1212.88 1184.88 1181.88 1189.12 1143.4 1125.76 1156.8 1102.04 1085.4 1120.12 1140.8 1116.56 1063.56 1028.4 1048.12 1068.36 1091.28 1072.48 1092.04 1090.64 1088.96 1106.92 1134.76 1174.32 1197.08 1208.64 1240.24 1259.16 1296.88 1340.04 1365.84 1351.4 1344.2 1359.4 1392.44 1435.84 1473 1486.16 1445.96 1420.08 1417.96 1385.04 1400.44 1399.88 1399.8 1423.16 1449.56 1493.32 1555.88 1594.16 1617.8 1657.68 1680.08 1715.36 1771.2 1823.8 1865.12 1916.68 1971.04 1982.64 1980.88 1967.04 1946.48 1962.44 1975.92 1943.56 1933.48 1957.04 1947.92 1900.44 1870.08 1841.96 1791.92 1832.28 1817.24 1809.88 1825.84 1889.88 1974.68 2062.92 2135.52 2205.12 2287.24 2275.44 2177.72 2104.44 2031.32 1963.16 1911.84 1877.96 1834.88 1756.8 1663.08 1584.32 1481.72 1494.32 1573.6 1576.64 1608.08 1603.28 1563.28 1549 1546.4 1496.64 1436.6 1374.76 1290.44 1221.8 1180.52 1116.28 1044.96 935.88 881.48 934.96 1024.56 1143.72 1229.72 1142.56 1045.88 974.16 919.2 951.04 1021.84 1083.88 1042 978.88 991.4 941.84 963.08 1021.92 1103.08 1134.12 1238.28 1308.32 1372.72 1427.6 1355.2 1264.52 1228.16 1172.68 1091.24 1024.64 934.24 847.56 843.24 806.92 813.08 796.92 745.88 743.6 742.48 740.56 725.6 683.6 659.2 707 670.72 621.16 642.84 658.24 653.2 641.08 659.88 695.6667 -9999 -9999
-9999 -9999 1380.32 1404.52 1334.32 1259.8 1197.4 1152.64 1136.16 1127 1127.16 1122.64 1108.52 1089.6 1086.2 1077.8 1092.4 1127.24 1163.6 1109.64 1042.52 1031.8 1062.88 1080.32 1096.08 1111.92 1123.84 1131.12 1130.92 1135.56 1136.88 1159.48 1211.36 1258.36 1287.2 1312.2 1345.64 1384.6 1413.04 1403.12 1373.44 1392.68 1427.52 1474.08 1505.12 1532.4 1516.16 1483.16 1479.32 1443.24 1468.56 1461.92 1452.8 1436.04 1459.76 1517.08 1579.32 1631.48 1674.8 1682.68 1730.64 1765.24 1808.2 1865.92 1930.68 1950.32 1945.8 1949.44 1956.4 1920.56 1897.44 1907.04 1918.32 1861.24 1824.28 1859.36 1861.72 1840.48 1779.16 1776.72 1712.12 1709.96 1696.76 1699.68 1765.48 1849.56 1931.92 1996.72 2080.56 2161.44 2262.8 2269.04 2218.76 2143.72 2072.96 2014.92 1965.56 1917.6 1866.52 1795.6 1705.08 1580.68 1462.84 1415.52 1455.8 1458.4 1531.72 1551.64 1538.84 1510.72 1517.92 1495.8 1431.8 1364.88 1280.12 1211.72 1137.8 1056.96 998.72 936.72 867.92 905.24 1004.92 1123.92 1227.92 1177.28 1080.68 988.56 925.44 874.48 888.8 960.24 990.64 951.28 915.36 886.52 891.68 970.68 1025.8 1073.2 1171.36 1226.92 1329.48 1423.92 1412.8 1322.2 1246.24 1168.72 1110.64 1044.72 962.2 919.04 915.32 873.2 887.8 861.76 817.44 848.2 813.32 779.52 754.76 742.56 678.16 647.12 633 614.56 677.96 743.36 752.76 743.5238 795.84 796.25 -9999 -9999
-9999 -9999 1370.188 1376.88 1317.68 1271.88 1254.64 1220.72 1170.96 1193.36 1183.28 1129.64 1113.32 1115.8 1111.12 1111.48 1124.44 1162.8 1166.68 1117.44 1060.68 1070.36 1100.6 1112.56 1137.6 1159.56 1150.2 1162.36 1176.76 1195.72 1192.4 1148.64 1202.92 1277.72 1331.24 1375.6 1386.4 1388 1400.32 1411.72 1429.48 1451.48 1480.8 1485.4 1523.64 1550.88 1558.76 1539.16 1525.76 1493.12 1529.48 1533.12 1491.76 1472.64 1491.6 1531 1587.88 1633.72 1683.44 1724.04 1748.36 1800.4 1853.16 1918.96 1935.8 1896.16 1856.48 1861.36 1847.04 1807.88 1783.76 1799.84 1832.48 1798.48 1724.48 1753.16 1776.48 1751.4 1705.96 1662 1640.2 1599.84 1628 1713.12 1791.8 1866.76 1944.88 2017.96 2098.8 2198.72 2239.4 2205.6 2180.48 2114.32 2060.24 2011.4 1959.88 1915.2 1856.36 1776.28 1677.12 1550.6 1476.2 1383.12 1325.24 1347.96 1432.76 1449.72 1489.92 1469.84 1448.12 1445.88 1433.32 1377.08 1301.04 1214.12 1146.84 1094.28 1022.44 933.6 864.48 870.6 986.16 1117.4 1211.68 1223.24 1168.76 1094.92 1017.36 913.84 836.4 843.48 934.6 963.28 892.4 829.4 841.44 905.64 946.6 1009.64 1080.24 1190.04 1309.12 1404.88 1429.16 1317.68 1218.76 1133.08 1076.24 1024.84 1013.12 1002.44 961.2 937.4 952.12 921.88 893.76 881.84 866 842.88 834.48 804.52 743.92 698.76 648.08 603.16 645.76 713.96 748.2 -9999 840 -9999 -9999 -9999
-9999 -9999 -9999 1349.75 1324.522 1300.8 1254.16 1214.68 1194.04 1192.48 1143.4 1120.16 1152.6 1154.16 1192.84 1178.76 1169.2 1221.92 1188.56 1120.28 1060.24 1092.8 1126.16 1177.04 1211.32 1197.96 1159.12 1173 1217.64 1246.64 1232.2 1186.68 1197.08 1271.12 1313.32 1327.04 1335.32 1340.4 1351 1377.64 1400.88 1426.8 1452.2 1486.68 1521.8 1570.64 1612.4 1607.04 1561.92 1547.88 1580.04 1573.36 1566 1537.76 1544.12 1555.76 1573.6 1629.2 1691.12 1733.32 1756.36 1802 1863.76 1896.16 1864.68 1822.44 1792.12 1792.48 1758.32 1693.08 1682.6 1688.6 1726.44 1735.4 1693.84 1671.48 1652.04 1611.84 1577.2 1527.72 1511.56 1567.08 1639.84 1758.8 1846.36 1936.44 2001.04 2089 2178.6 2230.16 2168.08 2107.44 2074.36 2023.56 2007.28 1996.2 1950.04 1906.56 1860.72 1789.96 1685.64 1540.24 1489.6 1422.48 1318.76 1277.6 1323.84 1346.92 1403.12 1393.32 1381.68 1358.48 1349.12 1320.16 1278.08 1208.2 1150.72 1098.52 1015.48 937.76 842.32 878.32 967.84 1037.6 1122.68 1208 1194.92 1165.24 1073.6 961.08 872.8 801.2 800.04 879.24 911.24 828.52 782.64 822.24 895.44 979.08 1079.48 1187.2 1276.4 1381.32 1435.72 1367.72 1267.16 1198.92 1148.08 1099 1090.84 1039.56 996.24 995.52 1015.56 994.88 974.56 960.92 933.56 894.96 835.36 746.32 684.08 620.16 614.88 644.36 666.4 715.76 770.8947 -9999 -9999 -9999 -9999 -9999
-9999 -9999 -9999 -9999 1321.063 1317.04 1257.88 1213.8 1166.76 1132.96 1142.68 1178.04 1197.92 1177.84 1235.6 1264.96 1235.96 1247.84 1197.48 1079.52 1050.52 1126.24 1168.68 1217.2 1229.84 1205.12 1157.4 1183.68 1251.2 1254.2 1219.72 1206.68 1205.52 1231.64 1246 1254.6 1278.2 1287.96 1313.24 1344.96 1376.48 1413.96 1472 1521.04 1557.28 1591.36 1632.56 1657.28 1648.68 1625.28 1626.2 1626.84 1684.4 1664.44 1603.88 1599.88 1613.96 1651.68 1683.2 1686.4 1707.92 1784.96 1864.72 1856.64 1795.2 1754.92 1746.32 1726.12 1690.92 1604.88 1599.08 1580.08 1586.8 1611 1591.16 1543.04 1510.16 1488.8 1509.24 1529.72 1531.64 1630.08 1693.24 1756.76 1869.72 1974.48 2025.36 2093.6 2192.16 2198.2 2110.6 2044.6 1983.44 1939 1941.56 1957.2 1959.04 1927.6 1855.32 1784.64 1685.52 1603.04 1536.32 1415.44 1280 1186.84 1174.56 1223.2 1305.64 1303.24 1292.8 1301.2 1305.16 1266.64 1235 1222.28 1172.4 1113.36 1040.96 940 848.72 833.04 890.12 965.8 1057.48 1174.64 1131.56 1111.08 1077.12 1033.24 960.24 880.28 799.36 783.4 872.68 833.84 747.56 778.36 876 956.6 1055.28 1160.88 1220.8 1311.16 1377.48 1376.8 1336.56 1282.4 1240.96 1197.76 1145.64 1095.92 1087.44 1085.48 1082.28 1023.92 963.8 906.04 884.16 848.56 783.8 687.68 619.52 620.88 691 721 711.48 718.36 783.5555 827 -9999 -9999 -9999 -9999
-9999 -9999 -9999 -9999 1326.929 1341.44 1301.72 1205.68 1149.12 1156 1194.04 1251.32 1235.12 1216.28 1253.48 1288.36 1322.56 1296.72 1201.96 1099.56 1065.08 1105.88 1154.4 1204.88 1233.36 1229.48 1193.28 1237.68 1274.04 1257.88 1227.56 1242.08 1234.84 1262.6 1260.28 1277.12 1293.96 1320.64 1320.84 1358.2 1392.8 1436.52 1482.44 1525.48 1575.04 1606.48 1645.28 1673.36 1706.76 1711.12 1676.56 1704.52 1758.04 1762.76 1650.4 1617.52 1604.76 1611.04 1594.36 1640.68 1717.48 1797.56 1823.44 1791.48 1726.44 1679.88 1645.16 1650.52 1621.56 1537.24 1503.72 1474.28 1453.52 1476.32 1466.4 1443.32 1445.84 1477.64 1540.76 1599.08 1631.2 1663.32 1746.96 1790.6 1853.32 1938.08 2010.64 2095.28 2160.64 2134.44 2076.76 2020 1952.52 1892.28 1887.36 1900.2 1923.48 1901.64 1817.44 1735.36 1657.48 1574.6 1471.68 1376.92 1272.44 1142.08 1084.84 1114.12 1200.52 1202.56 1192.6 1239.76 1251.4 1220.44 1180.56 1158 1132.92 1092.28 1044.44 938.96 842 813.24 859.08 907.08 1004.04 1090.84 1088.84 1048.48 1016.36 959.68 949.48 936.28 852.56 763.04 773.56 799.84 747 777.6 852.28 934.6 1035.68 1090.84 1155.12 1237.52 1256.16 1296.56 1349.12 1356.16 1313.56 1253.52 1195.68 1154.64 1107.8 1072.16 1072 1013.12 938.48 850.92 783.96 738.76 711.04 648.8 607.48 646.96 704.44 742.4211 733.1111 718.6667 -9999 -9999 -9999 -9999 -9999 -9999
-9999 -9999 -9999 -9999 1353 1379.08 1303.92 1214.44 1169.44 1199 1248.52 1302.52 1274.8 1268 1295.76 1321.48 1362.28 1310.28 1220.96 1149.28 1074.24 1094.32 1135.12 1182.76 1222.68 1246.2 1240.52 1253.56 1295.08 1267.08 1232.04 1274.68 1318 1347.44 1341.8 1341.76 1366.72 1379.52 1385.52 1370.96 1413.4 1461.4 1505.56 1542.48 1577 1616.32 1655.88 1686 1720.28 1721.4 1727.8 1778.32 1792.52 1712.12 1594.12 1548.36 1511.52 1505.96 1552.56 1629.28 1697.76 1710.4 1709.6 1698.64 1661.96 1601.08 1558.76 1544.2 1525.4 1484.64 1431.88 1386.36 1331.92 1350.24 1359.12 1413.88 1485 1540.12 1586.4 1654.12 1726.44 1763.92 1782.72 1852.68 1900.96 1968.52 2046.36 2106.48 2099.68 2066 2020.08 1972.36 1919.32 1842.2 1837.24 1867.84 1886.4 1850.24 1786.6 1687.44 1599.2 1496.76 1400.52 1311.84 1211.88 1126.12 1038.8 1018.36 1072.48 1073.84 1070.68 1113.12 1139.08 1146.8 1134.08 1099.88 1080.16 1047.8 1005.04 961.16 887 820.24 782.36 859.68 981.8 1035.2 1012.36 1003.88 966.08 904.88 856.92 873 872.48 820.76 744.48 749.8 736.36 770.48 846.24 925.16 981.6 1042.04 1110.52 1113.48 1141.92 1215.72 1235 1284.4 1298.36 1227.52 1162.16 1119.76 1066.32 1020.16 987.48 954.84 925.2 844.92 755.64 678.6 623.92 609.96 625.84 674.52 725.0455 739.5 -9999 -9999 -9999 -9999 -9999 -9999 -9999 -9999
-9999 -9999 -9999 -9999 1317.875 1367.56 1316.28 1240.6 1217.8 1270.4 1320.12 1373.48 1352.04 1345.96 1349.04 1365.64 1387.56 1324.64 1217.24 1157.2 1102.48 1093 1143.04 1170 1213.76 1258.72 1279.64 1292.68 1285.12 1246.48 1263.76 1278.64 1324.92 1363 1392.36 1396.4 1415.36 1442.44 1459.72 1444.24 1443.56 1460.76 1496 1531.88 1567 1618.28 1662.72 1698.64 1732.96 1745.28 1752.72 1742.24 1686.04 1558.16 1506.56 1472.8 1448 1465.64 1543.2 1603.28 1626.16 1597.36 1572.44 1591.8 1566.8 1500.48 1477.36 1444.56 1415.96 1385.6 1338.96 1271.56 1309.52 1365.4 1415.4 1485.56 1584.88 1632.72 1616.36 1679.48 1783.48 1859.96 1914.84 1937.48 1990.44 2021.12 2062.04 2057.04 2062.56 2019 1984.68 1940.44 1878.4 1802.12 1767.44 1791.6 1817.6 1806.6 1781.96 1689.4 1601.36 1486.52 1363.56 1261.48 1181.84 1113.8 1042.04 976.04 955.8 965.68 970.6 1017.96 998.8 996.12 1032.52 1017.96 987.8 962.96 929.92 883 868.92 840.6 780.6 846.6 949.6 997.12 932.88 919.16 932.84 879.24 815.72 775.52 800.56 780.24 732.68 721.4 709.76 740.24 804.56 889.36 965.96 1052.6 1043.28 1014.68 1068.72 1132.32 1116.56 1181.08 1269.96 1261.92 1204 1153.64 1108.04 1049.68 970.48 899 857.12 858 805.88 717 655.2 603.52 647.56 714.32 735.1818 -9999 -9999 -9999 -9999 -9999 -9999 -9999 -9999 -9999
-9999 -9999 -9999 1331 1346.56 1362.48 1315.12 1262.52 1266.6 1320.32 1365.92 1432.24 1444 1439.16 1403.16 1403.28 1354.28 1287.36 1228.6 1201 1147.68 1079.84 1137.24 1173.84 1208 1242.24 1276.36 1311.24 1304.6 1279.12 1297.4 1316.12 1363.68 1390.8 1421.24 1443.96 1464.64 1490.72 1500.92 1482.36 1484.76 1488.84 1507.4 1535.56 1573.68 1617.04 1662.24 1712.32 1754.16 1773.32 1686.2 1591.72 1550.32 1506.4 1460.56 1404.84 1398.24 1425 1496.88 1548.4 1569.76 1531.92 1453.04 1466.68 1450.24 1411.16 1364.48 1314.52 1282.32 1254.48 1256.32 1312.44 1404 1489.92 1524.28 1562.96 1660.16 1717.32 1734.76 1744.88 1799.08 1890.96 1985.84 2013.56 2041.04 2096.68 2063.16 2056.2 2037.12 1998.8 1981.2 1939.84 1865.64 1763.4 1690.32 1703.16 1717.6 1749.08 1753.08 1677.24 1589.28 1505.36 1406.16 1286.36 1224.72 1173.2 1089.6 1013.04 954.84 911.88 887.64 903.44 870.52 862.6 908.08 942.64 904.44 875.2 830.92 814.24 795.6 784.4 774.56 846.12 926.52 975.88 919.56 848.16 865.28 833 792.64 738.92 712.48 695.88 683.36 691.08 674.12 725.64 810.28 883.08 969.32 1002.44 941.96 920 993.24 1015.2 1005.04 1069.2 1185.36 1225.64 1210.44 1160.12 1104.52 1026.64 944.6 881.8 801.96 772.64 809.48 790.28 753.6 654.8 600.24 682.4 682.3 691 -9999 -9999 -9999 -9999 -9999 -9999 -9999 -9999
-9999 -9999 -9999 1316 1367.909 1399.44 1357.6 1320.52 1314.6 1380.84 1430.56 1467.48 1469.6 1437.48 1406.48 1415.2 1362.32 1331.68 1272.56 1260.52 1191.12 1096.2 1105.4 1151.32 1169.92 1212.28 1268.72 1307.24 1321.52 1310.76 1332.12 1371.52 1381.36 1423.2 1471.12 1495.88 1521.36 1528.88 1528.32 1521.08 1528.44 1545.48 1561.8 1586.28 1617.52 1657.08 1694.4 1736.8 1727.68 1696.28 1606.84 1506.36 1431.52 1428.48 1407.76 1370.76 1370.24 1376.4 1430.64 1452.88 1443.76 1423.2 1355.12 1331.8 1338.8 1301.8 1248.64 1243.56 1267.36 1241.12 1279.16 1321.88 1431.92 1525.04 1641.72 1686.32 1708.88 1758.64 1812.76 1838.2 1859.24 1942.88 2029.6 2105.28 2157.68 2146.56 2068.6 2052.28 2007.32 1946.16 1918.92 1880.08 1795.8 1708.24 1622.4 1595.56 1621.32 1696.32 1723.2 1665.84 1593.36 1534.08 1442.28 1386.6 1355 1239.88 1154.56 1084.64 1047.8 1004.52 922.72 887.08 901.4 873.2 840.84 843.04 824.2 807.88 831.04 870.44 870.36 775.36 776.28 836 894.76 904.36 861.36 815.6 757.24 744.52 729.88 700.56 697.2 730.84 753.4 712 672.12 705.2 775.36 830.68 883.16 915.16 864.08 847.12 917.36 933.2 918.36 1004.92 1132.04 1177.08 1168.68 1155.24 1090.68 1005.16 944.2 890.96 827.36 745.24 714.52 729.08 715.96 621.72 601.56 654.6 685.76 730.5385 -9999 -9999 -9999 -9999 -9999 -9999 -9999 -9999
-9999 -9999 -9999 -9999 1389.273 1381.32 1349.8 1336.2 1337.84 1372.08 1411.24 1453.56 1474.44 1473.88 1442.48 1444.64 1413.44 1347.68 1304.68 1307.2 1238.64 1165.52 1111.6 1124.96 1150.28 1211.12 1273.16 1310.48 1339.12 1338.48 1355.44 1394 1409.36 1441.4 1489.56 1525.52 1546.24 1550.6 1551.96 1567.6 1566.8 1583.64 1596.56 1618.56 1665.6 1692.52 1693.92 1671.2 1603.24 1532.52 1507.4 1476.2 1392.96 1367.4 1377.16 1337.24 1311.04 1294.2 1290.52 1301.68 1310.12 1316.4 1277.48 1228.4 1207.92 1199.84 1260.8 1339.2 1397.48 1372.36 1397.28 1384.04 1444.88 1523.44 1625.2 1709.52 1767.52 1807.6 1863.28 1931.68 1973.6 2018.32 2089.2 2177.6 2190.12 2102.96 2030.84 1992.8 1939.16 1857.52 1820.76 1806.48 1781.72 1692.6 1584.56 1512.44 1557.12 1638.64 1672.72 1627.88 1563.52 1500.52 1466.28 1450.44 1413.08 1317.48 1214.04 1181.24 1153.2 1077.4 1015.48 998 1014.88 952.36 879.88 842.52 854.88 904.24 943.36 973.28 909.72 834.12 795.4 766.48 790.52 826.16 768.76 737.32 715.12 727.2 708.84 720.96 787.68 827.16 855.44 796.48 716.4 671.56 690.04 731.44 781.28 822.32 797.56 789 842.52 820.88 850.24 952.44 1057.32 1117.6 1095.88 1130.72 1105.12 1034.04 970 895.32 817.64 754.96 696.88 652.16 612.32 588.72 617.48 646.32 683.76 746.125 -9999 -9999 -9999 -9999 -9999 -9999 -9999 -9999
-9999 -9999 -9999 -9999 1415.667 1373.6 1347.76 1366.52 1369.08 1385.4 1399.68 1434.4 1459.833 1488 1461.25 1466.52 1445.36 1415.92 1385 1374.2 1295.2 1228.44 1139.8 1121.36 1160.48 1231.08 1296.12 1330.24 1368.44 1375 1381 1413.88 1448.44 1484.72 1518.84 1561.76 1572.32 1585.24 1589.4 1603.04 1608.28 1624.8 1650 1679.8 1702.96 1692 1642.12 1568.36 1470.04 1438.56 1429.36 1393.72 1353.72 1301.88 1317.72 1284.84 1233.16 1203.72 1189.56 1197.04 1183.16 1178 1180.48 1203.4 1239.28 1328.48 1385.96 1429.96 1491.4 1493.48 1490.24 1484.52 1548.88 1586 1630.4 1672.32 1738.88 1805.16 1882.52 1949.08 2018.48 2061.76 2105.6 2151.68 2122.76 2044.76 1959.16 1909.68 1863.88 1784.68 1730.8 1701.52 1704.44 1643.44 1549.8 1459.36 1484.44 1505.84 1552.92 1503.84 1437.16 1368 1333.24 1354.44 1362.8 1338.84 1277.32 1227.84 1178.16 1140.96 1114.92 1114.32 1082.92 1013.84 963.48 923.88 934.92 977.68 1034.48 1021.16 957.24 913.56 865.16 808 744.72 754.2 730.6 754.32 758.44 783.52 794.64 802.72 858.52 928.92 929.32 834.4 778 742.72 677.64 669.44 676.04 693.72 709.4 736.92 780.8 736.96 803.44 899.6 964.36 1061.2 1037.52 1048.84 1063.36 1052.2 980.64 877.76 788.24 714.92 653.84 599.88 599.04 637.56 650.6 650.4 703.9048 745 -9999 -9999 -9999 -9999 -9999 -9999 -9999 -9999
-9999 -9999 -9999 -9999 1399.267 1371.88 1371.84 1399.92 1399.56 1416.545 1451.182 1461.333 -9999 -9999 -9999 1452 1456.3 1475.043 1485.6 1446.24 1367.6 1268.08 1164.56 1130.92 1174.04 1239.2 1296.36 1346.08 1388.24 1413.52 1422.76 1424.52 1428.24 1478.76 1542.68 1575.36 1594.24 1612.12 1628.8 1650.56 1664.76 1676.44 1703.24 1721.96 1691.4 1623.2 1553.8 1514.04 1440.68 1376 1344.2 1332.12 1270.64 1229.4 1235.64 1209.36 1158.96 1108.2 1120.96 1160.32 1188.84 1222.88 1278.2 1320.88 1367.44 1435.32 1497.92 1512.84 1581.88 1609.28 1585.32 1582.12 1613.6 1662.32 1699.84 1713.68 1751.12 1817.68 1870.24 1930.64 1996.68 2037.84 2067.16 2100.16 2059.52 1978.72 1881.72 1845.92 1790.04 1734.48 1666.96 1598.32 1601.16 1608.12 1511.4 1404.92 1370.52 1393.16 1442.32 1366.4 1299.44 1246.92 1217 1201.96 1206.48 1200.92 1178 1118.88 1034.2 1009.36 1019.92 1111.84 1154.96 1109.08 1052.6 1030.84 1049.84 1069 1110.76 1083.04 1020.6 962.04 920.16 862.84 781.72 748.6 779.12 826.96 828.52 822.56 885.6 904.24 914.76 961.32 981.32 903.48 860.64 799.48 762.48 730.88 743.04 683.64 649.2 657.76 696.16 672.8 746.96 818.6 896.64 935.72 944.6 964.76 972.8 967.84 955.56 884.12 792.44 712.2 632.04 588.36 626.44 680.72 687.92 681.7059 720.1667 -9999 -9999 -9999 -9999 -9999 -9999 -9999 -9999 -9999
-9999 -9999 -9999 -9999 1406.538 1397.52 1393.381 1415.5 1416 1428 -9999 -9999 -9999 -9999 -9999 -9999 -9999 1491 1478.76 1410.56 1334.28 1264.44 1188.12 1152.08 1197.88 1256.24 1311 1360.2 1410.8 1463.08 1471.52 1477.6 1498.72 1487.76 1525.68 1563.6 1599.16 1637.64 1666.52 1699.72 1720.32 1738.04 1717.88 1630.84 1559.64 1516.52 1430.12 1425.2 1372.92 1299.92 1240.88 1249.4 1218.28 1142.92 1131.84 1106.96 1090.32 1118.24 1197.16 1240.88 1286.16 1317.08 1365.72 1452.84 1477.32 1528.96 1556.96 1591.04 1665.56 1713.16 1700.88 1689.12 1703.2 1754.32 1799.4 1825.28 1832.56 1841 1891.88 1958.28 1983.28 2006.76 2043.52 2077.48 2039.28 1947.52 1852.8 1770.92 1682.64 1630.64 1614.08 1540.52 1499.84 1525.64 1493.36 1401.92 1308.44 1296.4 1321.88 1225.4 1152.96 1144.64 1106.08 1070.44 1078.12 1062.24 1061.72 1036.36 998.48 987.72 998.12 1094.8 1183.72 1212.36 1184.48 1153.96 1161.56 1162 1195.16 1132.04 1068.16 1021.48 983.6 898.56 821.28 808.28 799.56 855.32 872.36 839.76 912.16 969.52 1006.76 1042.24 1066.52 994.16 919.8 885.96 870.04 839.24 820.36 733.44 673.4 664.32 645.28 637.96 674.72 745.48 819.68 808.4 871.36 896.56 853.56 841.84 858.92 872.56 803.24 731.64 662.44 589.36 608.28 679.3889 693.5 -9999 -9999 -9999 -9999 -9999 -9999 -9999 -9999 -9999 -9999 -9999
-9999 -9999 -9999 -9999 -9999 1403.2 -9999 -9999 -9999 -9999 -9999 -9999 -9999 -9999 -9999 -9999 -9999 -9999 1446.75 1417.96 1349.92 1286.8 1220.8 1178.92 1204.8 1265.44 1323.12 1376.2 1426.4 1476.8 1523.2 1533 1557.12 1557.12 1543.12 1573.44 1620.36 1667.04 1696.84 1696.84 1683.52 1685.88 1652.08 1515.84 1423.24 1389.48 1343.88 1339.44 1282.16 1215.68 1142 1141.16 1106.24 1056.4 1099.92 1122 1159.2 1201.28 1296.88 1374.24 1408.04 1449.44 1489.08 1555.52 1578.52 1640.72 1672.4 1690.12 1745.24 1809.64 1820.96 1807.56 1801.08 1855.52 1899.64 1925 1932.2 1895.84 1904 1935.2 1953.6 1983.08 2022.16 2087.44 2057.84 1984.88 1897.12 1787.08 1659.2 1562.92 1508.2 1484.08 1414.2 1391 1356.4 1313.84 1263.2 1221.24 1200.32 1130.56 1099.76 1075.24 1077.08 1082.48 1075.6 1081.32 1065.8 1034.56 1082.84 1018.92 966.76 1030.68 1071.36 1172.8 1266.56 1283.36 1276.32 1251.52 1269.6 1204.2 1125.52 1046.6 967.6 894.36 874.96 873.84 854.8 839.72 910.28 906.28 918.76 1004.96 1063.44 1086.56 1137.48 1086.8 1024.8 1037.64 977 916.44 836.56 751.28 763.92 786.48 763.88 690.04 638.72 676.4 714.72 695.32 754.68 777.04 738.28 698.92 733.88 825.2 815.2 742.28 673.04 611.68 601.72 627.625 639.3846 -9999 -9999 -9999 -9999 -9999 -9999 -9999 -9999 -9999 -9999 -9999
-9999 -9999 -9999 -9999 -9999 -9999 -9999 -9999 -9999 -9999 -9999 -9999 -9999 -9999 -9999 -9999 -9999 -9999 1471 1476.167 1428.3 1359.04 1297.68 1251.76 1221.64 1273.84 1334.88 1396.52 1438.84 1476.96 1534.44 1567.28 1589.84 1617.28 1610.24 1610.8 1633.8 1650.12 1617.76 1612.24 1613.44 1619.2 1595.84 1486.96 1377.96 1307.6 1235.56 1219.96 1170.48 1127.12 1072.4 1041.96 1067.2 1181.04 1251.28 1264.52 1308.44 1350.84 1413.68 1505.52 1556.2 1608.8 1650.6 1687.12 1711.24 1749.96 1798.56 1816.72 1848.88 1917.44 1942.16 1927.2 1918.24 1928.04 1978.8 2005.48 1982.4 1945.76 1911.32 1935.88 1974.16 2005.88 2055.04 2121.32 2056.48 1960 1844.56 1752.52 1626.76 1519 1441.24 1378.8 1329.48 1293.72 1257.72 1225.44 1204.36 1177.8 1136.56 1158.4 1230.68 1248.36 1237.48 1240 1227.08 1214.68 1182.08 1177.56 1154.56 1056.96 973 942.88 957.52 1094.2 1205.84 1319.12 1340.52 1341.6 1314.72 1216.8 1136.4 1072.88 1019.64 986.84 951.76 956.72 949.28 899.6 901.92 971.84 952.88 1000.88 1099.6 1167.36 1209.6 1194.08 1152.08 1092.16 993.48 906.96 817.72 785 854.16 901.2 841.2 752.04 694 648.64 621.24 619.84 636.72 660.44 652.32 619.36 640.56 767.88 848.8 806 748.08 690.24 634.56 588.6 598.4348 679.3333 -9999 -9999 -9999 -9999 -9999 -9999 -9999 -9999 -9999 -9999
-9999 -9999 -9999 -9999 -9999 -9999 -9999 -9999 -9999 -9999 -9999 -9999 -9999 -9999 -9999 -9999 -9999 -9999 -9999 -9999 1425.167 1407.333 1385.24 1335.68 1300.76 1287.92 1336.72 1398.8 1454.52 1501.88 1545.76 1594.8 1633.52 1651.48 1628.92 1641.4 1633.2 1592.04 1553.4 1560.08 1570.32 1573.64 1524.12 1445.48 1360.48 1270.4 1188 1130.08 1091.44 1043.8 1029.96 1113.08 1219.56 1291.52 1337.72 1392.88 1438.76 1491.04 1539.68 1603.48 1661.72 1714.4 1757.72 1816.32 1844.8 1853.44 1866.32 1879.68 1887.68 1925.48 1973.8 2027.44 2034.16 2035.8 2054.2 2073.84 2048.36 2010.32 1950.44 1928.2 1972.32 2041.92 2097.52 2120.96 2044.84 1958.16 1795.32 1655.88 1574.36 1528.52 1480.56 1376.56 1339.36 1349.68 1337.96 1340.64 1310.16 1220.28 1230.32 1305.36 1356.64 1353.32 1348.72 1366.36 1376.4 1343.44 1295.32 1247.24 1185.92 1129.64 1062.8 975.84 946 1024.88 1142.44 1229.76 1253.36 1296.76 1312.64 1266.04 1220.16 1159.6 1108.84 1077.84 1029.68 1050.6 1035.52 973.48 951.64 990.12 1022 1031.08 1124.76 1225.8 1277 1244.2 1160.64 1063.04 986.2 921.04 859.68 881.32 944.64 952.44 870.52 816.88 766.48 680.2 666.32 693.8 689.32 672.52 664.08 632.6 638.36 755.04 856.2 856.12 823.4 782.48 707.88 631.08 587.12 639 644.5238 655 -9999 -9999 -9999 -9999 -9999 -9999 -9999 -9999
-9999 -9999 -9999 -9999 -9999 -9999 -9999 -9999 -9999 -9999 -9999 -9999 -9999 -9999 -9999 -9999 -9999 -9999 -9999 -9999 -9999 1409 1413.529 1414.913 1380.48 1343.84 1353.4 1390.4 1435.96 1495.68 1544 1590.12 1633 1639.44 1610.8 1614.64 1586.48 1504.2 1471.84 1491.12 1529.48 1533.52 1458.52 1345.16 1310.44 1264.68 1174.64 1081.48 1022.64 1019.88 1059.04 1175.64 1258.2 1305.4 1350.2 1430.68 1470.84 1505.44 1559.24 1629.64 1682.68 1722.52 1760.52 1798.64 1826.2 1798.56 1802.28 1797.92 1837.44 1893.56 1944.52 1967.76 1982.28 1984.68 1987.2 2028.64 2061.6 2033.4 2013.24 1995.76 1995.8 2056.52 2123.64 2102.48 2023.68 1920.68 1815.12 1716.72 1666.24 1609.8 1528 1472.56 1473.2 1491.2 1503.08 1460.68 1342.76 1290.6 1357 1400.4 1439.84 1479.56 1492.68 1498.76 1492.88 1419.32 1308.2 1178.6 1089.96 1055.12 1018.76 974.92 914.84 941.28 1070 1135.92 1152.16 1183.24 1195.08 1205.48 1239.12 1246.88 1205.32 1166.76 1125.2 1138.28 1125.4 1083.12 1050.56 1026.6 1082.8 1096.96 1141.76 1246.52 1315.24 1269.76 1173.32 1093.44 1042.92 997.2 953.08 975.24 1020.88 980.12 903.92 827.24 757.24 721.08 776.64 823 823.76 770 695.08 612.24 673.64 775.4 821.92 871.24 833.04 762.4 703.32 658.56 601.08 583.88 628.48 654.3333 -9999 -9999 -9999 -9999 -9999 -9999 -9999 -9999
-9999 -9999 -9999 -9999 -9999 -9999 -9999 -9999 -9999 -9999 -9999 -9999 -9999 -9999 -9999 -9999 -9999 -9999 -9999 -9999 -9999 -9999 1340 1341.158 1324.56 1324.24 1335.72 1381.72 1431.04 1488.44 1527.76 1576.32 1607.44 1597.92 1606.44 1620.16 1542.28 1456.84 1408.28 1411.12 1438.76 1459.76 1411.44 1350.08 1274.72 1210.96 1143.8 1053.44 1005.32 1082.68 1121.84 1151.6 1215.56 1243.52 1282.28 1338.64 1368.48 1443.12 1521.2 1568.64 1604.6 1607.48 1650.76 1697.48 1706.24 1712.12 1743.68 1761.04 1788.84 1828.44 1870.72 1890.48 1906 1906.52 1914.56 1978.28 2055.2 2106.72 2134.2 2125 2117.52 2149.72 2160.56 2124.2 2097.16 2050.44 1979.36 1869.44 1774.4 1691.8 1641.48 1644.08 1613.16 1599.48 1545.04 1423.32 1335.32 1367.92 1427.32 1479.04 1523.92 1596.56 1552.32 1484.96 1450.96 1383.12 1303.24 1181.28 1071.72 1031.44 984.8 974.92 984.92 936.24 968.08 1055.8 1058.48 1078.92 1076.24 1078.56 1150.36 1240 1293.76 1296.36 1265.16 1246.48 1200.04 1168.64 1124.8 1103.16 1116.52 1181.76 1235.48 1297.2 1369.08 1311.2 1222.72 1183.68 1136.6 1081.28 1058.12 1096.8 1076.12 979.04 878.84 830.52 817.12 825.08 864.16 926.08 875.64 783.04 688.68 626.08 657.2 714.24 780.68 857.92 800 732.04 666.24 596.12 586.52 618.64 667.04 655.3182 -9999 -9999 -9999 -9999 -9999 -9999 -9999 -9999
-9999 -9999 -9999 -9999 -9999 -9999 -9999 -9999 -9999 -9999 -9999 -9999 -9999 -9999 -9999 -9999 -9999 -9999 -9999 -9999 -9999 -9999 1253 1274.84 1263.36 1287.52 1326.32 1366.56 1415.24 1459.48 1509.8 1551.4 1580.88 1591 1610.12 1590.4 1548.92 1464.96 1360.24 1321.6 1318.32 1351.52 1364.8 1343.8 1277.72 1195.52 1115.68 1050.2 1027.64 1113.28 1199.08 1260.88 1327 1349.04 1354.92 1373.56 1350.92 1383.88 1431.4 1479.56 1503.32 1552.76 1601.56 1642.96 1700.08 1767 1859.72 1871.92 1830.92 1835.12 1861.44 1888.28 1917.36 1933.2 1992.6 2010.28 2072.2 2126.76 2176.04 2224.08 2237.44 2236.08 2266.12 2279.16 2249.36 2211.92 2127.12 2025.4 1949.56 1833.08 1764.2 1807.64 1739.88 1644.76 1544.24 1453.44 1391.2 1443.28 1493.36 1552.48 1609.24 1585.08 1460 1373.76 1325.4 1283.92 1222.44 1146 1102.96 1128.4 1118.8 1115 1068.44 963.4 910.8 925.72 951.12 959.92 966.12 977.56 1053.64 1125.12 1221.16 1312.56 1345 1336.88 1292.32 1248.76 1248.92 1239.08 1222 1245.44 1327.28 1385.36 1433.72 1364.04 1290.6 1268.2 1200.84 1170.12 1206.04 1173.56 1096 1009.12 934.4 904.28 941.04 943.48 984.88 994.52 918.52 829.32 783.4 721.16 687 656.6 721.2 806.56 775.16 728.12 661.52 598.56 591.44 668.44 645.24 629.1667 -9999 -9999 -9999 -9999 -9999 -9999 -9999 -9999
-9999 -9999 -9999 -9999 -9999 -9999 -9999 -9999 -9999 -9999 -9999 -9999 -9999 -9999 -9999 -9999 -9999 -9999 -9999 -9999 -9999 -9999 1212.75 1217.36 1235.76 1285.56 1330.28 1370.6 1409.64 1449.52 1495.52 1538.04 1569.56 1547.92 1522.04 1511.84 1513.8 1457.48 1326.6 1222.6 1212.16 1250.48 1279.44 1269.32 1247.36 1177.08 1097.2 1015.92 1024.52 1104.84 1205.68 1324.6 1397.64 1444.44 1469.28 1499.68 1483 1473.48 1524.76 1566.72 1593.2 1650.04 1694.96 1742.24 1812.16 1865.56 1900.08 1911.88 1926.8 1950.52 1961.28 1984.48 2032.4 2018.84 2090.64 2130.52 2200.72 2256.08 2295.2 2337.08 2376.88 2387.24 2369.88 2395.32 2368.96 2321.72 2236.84 2163.28 2111.64 2036.72 1957.16 1906.84 1809.96 1717.36 1601.8 1505.48 1472.64 1510.36 1550.96 1642.88 1626 1490.8 1373.72 1304.76 1235.68 1193.84 1161.48 1140.44 1144.76 1231.16 1260.8 1205.36 1095.2 1017.8 967.28 895.6 876.88 866.88 873.68 892.28 951.36 1037.04 1125.32 1196.52 1243.16 1343.08 1382.8 1345.56 1366.2 1366.84 1350.24 1335.92 1403.2 1466.72 1498.6 1429.68 1373.88 1347.4 1283.2 1273.88 1267.76 1204.28 1154.92 1094.28 1029.68 1015.96 1066.8 1074.2 1054.44 981.2 901.08 846.76 827.56 773.88 709 621.12 668.4 732.2 688.48 680.08 652.04 622.68 585.64 639.68 619.72 622.2 -9999 -9999 -9999 -9999 -9999 -9999 -9999 -9999
-9999 -9999 -9999 -9999 -9999 -9999 -9999 -9999 -9999 -9999 -9999 -9999 -9999 -9999 -9999 -9999 -9999 -9999 -9999 -9999 -9999 1194.667 1191.708 1189.56 1228.68 1289.84 1317.76 1350.28 1395.96 1439.08 1496.08 1535.44 1562.4 1505.24 1452.64 1436.56 1432.92 1412 1304.68 1154.72 1111.16 1145.16 1173.28 1180.64 1192.04 1137.6 1073.2 1002.68 1033.48 1144.52 1230.88 1286.44 1332.96 1373.76 1419.24 1475.88 1533.4 1556.52 1587.6 1622.4 1647.52 1681 1726.16 1762.24 1804.64 1849.6 1883.44 1913.24 1956.6 2001.92 2051.4 2090.16 2122.76 2154.52 2158.68 2222.04 2303.32 2363.08 2412.04 2441.08 2464.6 2495.52 2504.56 2480.68 2402.16 2313.48 2258.52 2222.52 2176.96 2112.12 2036.6 1960.24 1871.56 1776.48 1677 1609.32 1604.8 1637.48 1655.6 1707.2 1614.04 1485.44 1369.36 1278.12 1261.68 1268.72 1278.76 1230.16 1196.4 1294.52 1342.6 1245 1148.68 1105.88 1039.2 972.84 945.88 956.2 943.8 878.76 870.16 951.28 1022.8 1088.32 1151.68 1270.64 1371.64 1419.96 1439.88 1485.52 1512.8 1514.16 1501.36 1535.48 1578.12 1515.16 1470.08 1443.92 1393.64 1373.72 1365.6 1316.04 1252.16 1191.56 1154.64 1164.28 1174.72 1133.84 1075.24 976.64 890.4 826.2 786.48 740.6 659.8 591.6 645.52 624.92 615.2 585.92 597.64 580.32 582.68 610.28 597.76 599.75 -9999 -9999 -9999 -9999 -9999 -9999 -9999 -9999
-9999 -9999 -9999 -9999 -9999 -9999 -9999 -9999 -9999 -9999 -9999 -9999 -9999 -9999 -9999 -9999 -9999 -9999 -9999 -9999 1167 1160.2 1154.8 1171.32 1223.36 1266.8 1312.4 1352.72 1388.6 1439.44 1482.68 1504.48 1526.4 1502.92 1404.6 1387.96 1361.56 1307.52 1257.76 1147.12 1050.68 1073.04 1099.88 1140.12 1151.8 1138.72 1050.64 978.6 1050.32 1126.24 1188.2 1223.88 1231.12 1256.16 1350.96 1436.68 1439 1447.4 1493.16 1546.6 1615.92 1644.36 1660 1699.84 1742.76 1768.08 1774.28 1814.28 1865.92 1916.52 1997.84 2044.28 2071.56 2148.16 2213.52 2276.64 2343.76 2396.08 2427.48 2453.84 2496.04 2532.76 2517.28 2434.88 2384.6 2335.04 2275.24 2225.08 2157.08 2102.36 2039.2 1988.96 1942.16 1881.68 1805.32 1743.96 1735.44 1753.28 1770.28 1725.84 1598.48 1476.12 1377.6 1333.04 1388 1401.28 1322.12 1263.28 1263 1341.12 1387.92 1314 1265.8 1180.24 1120.4 1075.24 1049.8 1042 1016.24 946.4 865.6 880.4 931.6 980.24 1064.52 1189.96 1258.56 1305.84 1367.12 1426.32 1543.6 1593.24 1582.08 1619.2 1655.52 1613.4 1579.72 1560.52 1518.48 1472.4 1414.84 1352.76 1306.8 1271.8 1233.52 1173.92 1119.2 1064.48 1033.64 991.8 932.76 867.6 811.04 768.32 702.16 608.44 588.24 590.92 609.64 601.28 583.08 641.76 614 575.1667 571.2727 -9999 -9999 -9999 -9999 -9999 -9999 -9999 -9999 -9999
-9999 -9999 -9999 -9999 -9999 -9999 -9999 -9999 -9999 -9999 -9999 -9999 -9999 -9999 -9999 -9999 -9999 -9999 -9999 -9999 1132.333 1113.955 1128.68 1168.24 1215.8 1262.36 1308.24 1342.04 1383.8 1429.32 1456.52 1468.24 1456.76 1457.64 1391.2 1337.8 1278.4 1190.32 1153.04 1120.12 1030.96 1018.4 1049.08 1067.4 1078.84 1061.84 985.52 955.56 1022.04 1078.44 1098.12 1096.6 1122.76 1204.28 1291.2 1318.52 1311.24 1362.28 1440.92 1525.96 1548.6 1544.04 1550.6 1594.88 1624.56 1623.68 1649 1696.36 1747.28 1820.04 1911.8 1953 2017.08 2108.04 2237.76 2298.4 2342.52 2390.12 2428.56 2460.36 2489.8 2456.52 2369.68 2329.12 2302.92 2286.16 2248.24 2206.4 2153.12 2107.44 2022.52 1964.04 1967.88 1973.24 1923.8 1911.36 1909.04 1862.68 1799.56 1670.64 1566 1477.72 1429.44 1417.36 1469.64 1427.12 1361.72 1375.16 1377.84 1411.84 1466.24 1407.4 1401.08 1313.64 1211 1186.6 1154.64 1151.16 1118.32 1024.4 915.92 853.16 848.52 908.96 1019.32 1119.2 1139.08 1186.52 1258.68 1361.6 1455.4 1507.16 1561.2 1652.08 1666.2 1609.64 1577.32 1575.2 1519.8 1442.16 1357.24 1264.88 1232.8 1215.6 1170.2 1116.24 1127.4 1095.56 1015.52 949.84 919 882.48 850.6 819.36 752 689.92 648.12 678.36 657.96 589.2 604.6 671.8 646.7917 603 -9999 -9999 -9999 -9999 -9999 -9999 -9999 -9999 -9999 -9999
-9999 -9999 -9999 -9999 -9999 -9999 -9999 -9999 -9999 -9999 -9999 -9999 -9999 -9999 -9999 -9999 -9999 -9999 -9999 -9999 -9999 1072.231 1108.92 1160.92 1201.16 1231.92 1263.48 1303.12 1331.36 1348.72 1384.72 1400.72 1402.12 1415.28 1389.84 1345.84 1294.6 1188.68 1083.92 1029.76 995.76 968.08 976.44 1009.76 1021.52 983.8 973.36 1038.2 1043.2 1066.8 1096.04 1140.8 1206.76 1210.36 1221.6 1232.52 1278.4 1352.76 1433.56 1431.6 1418.16 1413.08 1457.64 1499.96 1514.6 1531.12 1568.64 1624.48 1695.24 1803.24 1884.6 1974.64 2052.84 2122.84 2190.12 2279.24 2340.88 2387.08 2439.68 2490.48 2523.6 2445.44 2327.72 2256.8 2202.32 2196.52 2186.52 2189.72 2152.28 2099.2 2027.52 1933.84 1907.52 1983.88 2051.36 2059.72 2021.8 1922.96 1815.72 1690.56 1588.68 1552.44 1544.44 1526.48 1536.16 1464.8 1444.88 1496.16 1475.36 1471.76 1520.04 1497.52 1471.84 1415.08 1335.08 1317.64 1309.64 1281.8 1197.24 1084.04 976 909.56 854.64 862.72 983.68 1034.24 1020 1104.24 1227.56 1314.88 1318.56 1359.4 1442.92 1550.72 1610.76 1585.8 1508.12 1455.72 1395.44 1341.2 1268.72 1212.92 1142.36 1110.84 1081.68 1044.64 1049.64 1039.44 982.32 922.92 897.96 879.16 838.68 787.88 758.52 713.12 678.64 653.16 603.12 573.84 630.36 662.88 679.6 -9999 -9999 -9999 -9999 -9999 -9999 -9999 -9999 -9999 -9999 -9999
-9999 -9999 -9999 -9999 -9999 -9999 -9999 -9999 -9999 -9999 -9999 -9999 -9999 -9999 -9999 -9999 -9999 -9999 -9999 -9999 -9999 1055 1092.88 1148.88 1164.8 1187.88 1218.96 1236.84 1259.48 1276.04 1303.32 1343.12 1368.6 1341.92 1311.68 1274.48 1258.16 1199.52 1102.44 1036.48 976.4 930.88 920.24 940 949.16 951.84 1007.8 1074.56 1156.96 1191.96 1235.96 1266.68 1317.04 1352.84 1349.76 1353.4 1360.96 1361.08 1381.16 1390.56 1448.2 1456.2 1481.56 1502.8 1519.48 1558.84 1581.64 1629.04 1720.4 1798.04 1846.64 1912.24 1972.08 2047.84 2116.24 2190.6 2255.76 2329.6 2431.76 2500.64 2491.48 2391.88 2269.72 2219.04 2168.72 2111.96 2089 2086 2060.6 2034.52 1971 1884.64 1856.28 1930.92 2037.08 2099.72 2046.12 1937.4 1816.12 1722.28 1673.68 1674.88 1647.48 1633.84 1604 1532.32 1494.4 1547.28 1545.64 1555.52 1609.08 1585.68 1527.68 1475.88 1409 1346.2 1322.68 1294.24 1208.8 1144.92 1053.28 1001.68 901.96 826.6 914.92 931.96 966.88 1080.72 1155.16 1182 1209.48 1273.4 1389.44 1457.16 1443.64 1502.44 1475.28 1408.4 1341.76 1281.44 1211.36 1152.64 1087.04 1005.4 985.52 970.52 944.84 967.56 958.8 898.52 844.32 836.2 785.88 726.44 708.6 662.16 597.64 568.64 584.16 627.52 665.16 648.28 655.1 -9999 -9999 -9999 -9999 -9999 -9999 -9999 -9999 -9999 -9999 -9999
-9999 -9999 -9999 -9999 -9999 -9999 -9999 -9999 -9999 -9999 -9999 -9999 -9999 -9999 -9999 -9999 -9999 -9999 -9999 -9999 -9999 1048.421 1094.04 1109.16 1107.32 1140.8 1171.84 1193.6 1221.04 1237.12 1283.16 1331.12 1374.88 1368 1306.04 1267.72 1253.4 1191.24 1070.44 1020.44 975.28 918.4 929.16 989.96 1030.4 1018.96 1047.6 1097.32 1137.08 1176.68 1261.04 1306.96 1348.52 1366.72 1368.28 1405.44 1451 1482.12 1532.28 1531.28 1546.16 1569.56 1601.88 1612.6 1613.2 1666.96 1691.12 1728.6 1797.32 1853.76 1891.6 1912.6 1959.96 2038.28 2092.12 2153.84 2243.04 2334.24 2446.4 2500.56 2463.2 2348.52 2254.04 2206.88 2167.08 2096.04 2014.52 1960.84 1971.04 1972.32 1922.4 1838 1814.96 1884.88 1967.56 2031.08 2040.52 1971.68 1897.24 1840.88 1798.72 1774.6 1731.12 1728.6 1658.16 1593.24 1561.48 1608.76 1641.96 1659.76 1658.24 1574.2 1488.2 1433.8 1383.12 1355.12 1293.96 1232.52 1154.84 1087.72 1030.32 989.76 931.32 845.64 820.28 856.56 948.24 1017.64 1029.92 1078.76 1176.64 1275.4 1377.8 1349.56 1320.44 1395.2 1401.36 1322.32 1243.8 1195.36 1157.84 1083.76 985.56 929.28 911.44 932.28 880.6 862.64 883.6 847.44 797.16 767.36 719.04 663.4 615.8 580.12 558.76 618.12 643.44 657.4545 668.0588 655.5555 -9999 -9999 -9999 -9999 -9999 -9999 -9999 -9999 -9999 -9999 -9999 -9999
-9999 -9999 -9999 -9999 -9999 -9999 -9999 -9999 -9999 -9999 -9999 -9999 -9999 -9999 -9999 -9999 -9999 -9999 -9999 -9999 -9999 1044.833 1080.6 1059.923 1081.12 1118.8 1144.52 1173.28 1199.4 1236.64 1275.04 1319.96 1353.96 1355.2 1301.92 1265.8 1248.4 1222.24 1163.76 1060 986.76 924.64 926.04 993.52 1040.28 1088.6 1148.4 1200.88 1216.16 1187.24 1234.92 1263.48 1277.8 1308.36 1337.36 1381.4 1457.6 1541.96 1611.68 1675.24 1691.88 1681.84 1715.64 1761.76 1798.16 1848.96 1877.88 1935.56 1995.8 2029.28 2037.68 2059.52 2067.24 2101.48 2152.4 2239.32 2327.96 2418.36 2485.04 2472.32 2395.16 2270.68 2177.04 2112.96 2064.12 2030.88 1945.04 1867.88 1870.4 1906.64 1860.08 1778.48 1762.88 1828.96 1912.92 2009.76 2042.08 2012.56 1985.88 1952.08 1901.08 1871.92 1835.12 1785.8 1714.48 1679.12 1665.24 1688.92 1716.4 1702.12 1640.12 1539.56 1481 1469.84 1468 1418.52 1342.24 1243 1150.08 1049.44 970.28 951.52 912.96 880.08 836.72 807.36 871 915.52 992.52 1089.88 1165 1202.16 1256.64 1223.76 1207.24 1284.12 1333.92 1251.96 1157.32 1096.88 1048.48 1000.04 931.4 860.56 836.88 908.6 890.76 823.8 767.92 758.88 743.96 713.6 661.36 614.32 573.56 572.56 613.36 686.36 677.2667 -9999 -9999 -9999 -9999 -9999 -9999 -9999 -9999 -9999 -9999 -9999 -9999 -9999 -9999 -9999
-9999 -9999 -9999 -9999 -9999 -9999 -9999 -9999 -9999 -9999 -9999 -9999 -9999 -9999 -9999 -9999 -9999 -9999 -9999 -9999 -9999 -9999 -9999 1059 1093.714 1133.727 1148.76 1164.76 1196.28 1225 1253.56 1286.16 1316.72 1305.36 1256.52 1225.44 1208.28 1171.28 1099.04 1014.8 924.64 898.64 941.96 978.48 1024.72 1091.76 1185.6 1261.4 1285.04 1245.32 1215.76 1230.44 1298.24 1338.8 1412.56 1471.48 1531 1587.08 1616.08 1698.92 1774.16 1798.6 1821.12 1874.4 1939.64 1994.16 2010.2 2000.48 2042.4 2122.76 2147.64 2181 2161.04 2173.88 2232.92 2322.96 2411.68 2469.88 2490.4 2483.32 2392.76 2280.32 2179.6 2090.72 2031.12 1943.64 1849.72 1774 1758.88 1779.6 1779.92 1728.8 1747.6 1857.96 1955.52 2026.84 1979.76 1945.88 1925.76 1918.12 1923.88 1914.88 1924.68 1852.68 1807.08 1788.96 1771.64 1790.52 1772.48 1697.04 1617.92 1569.48 1578.08 1552.88 1491.36 1406.24 1328.36 1236.16 1132.6 1043.04 1005.72 1052.64 1007.32 961.88 914.92 835.16 820.2 904.16 1010.68 1051.72 1079.52 1098.88 1151.64 1095.04 1096.36 1192.76 1273.32 1240.32 1150.48 1067.24 1004.12 932.64 859.52 814.08 780.8 846.2 856.28 812.36 741.92 685.44 678.88 645.8 612.6 569.92 560 593.4 678.72 716.6667 715.5 -9999 -9999 -9999 -9999 -9999 -9999 -9999 -9999 -9999 -9999 -9999 -9999 -9999 -9999 -9999
-9999 -9999 -9999 -9999 -9999 -9999 -9999 -9999 -9999 -9999 -9999 -9999 -9999 -9999 -9999 -9999 -9999 -9999 -9999 -9999 -9999 -9999 -9999 -9999 -9999 1105.8 1121.391 1137.32 1167.24 1204.12 1215.84 1252.8 1278.28 1238.32 1236.24 1206.12 1151.12 1074.4 994.6 945.8 884.76 901.72 960.16 1046.56 1097.52 1137.16 1200.08 1234.8 1284.4 1327.28 1322.8 1268.6 1275.08 1349.36 1447.08 1518.88 1579.04 1632.08 1668.6 1727.68 1789.44 1849.84 1884.32 1901.24 1927.72 1953.48 2013.56 2066.44 2093.24 2152.08 2244.36 2286.72 2286.12 2292.64 2324.44 2380.12 2416.8 2453.92 2481.12 2467.6 2346 2257.2 2170.76 2113.4 2035.48 1963.92 1847 1746.52 1686.92 1692.36 1708.8 1680.24 1764.52 1874.4 1979 1990.24 1921.44 1874.36 1871.2 1844.36 1859.6 1833.16 1847.24 1874.28 1936.44 1935.08 1919.32 1865.6 1786.4 1720.52 1665.64 1681 1625 1523.24 1445.44 1362.24 1261.28 1170.48 1079.72 1053.76 1098.72 1154.48 1114.88 1034.84 958.16 869.12 805.04 838.04 905 919.12 968.52 1007.72 1051.92 1001.92 1018 1105.52 1158.36 1164.28 1165.8 1099.96 1014.04 930.4 848.8 776.64 730.56 771.84 802.2 774.2 703.48 645.24 602.56 560.08 556.28 561.16 596.32 666.12 697.4615 -9999 -9999 -9999 -9999 -9999 -9999 -9999 -9999 -9999 -9999 -9999 -9999 -9999 -9999 -9999 -9999 -9999
-9999 -9999 -9999 -9999 -9999 -9999 -9999 -9999 -9999 -9999 -9999 -9999 -9999 -9999 -9999 -9999 -9999 -9999 -9999 -9999 -9999 -9999 -9999 -9999 -9999 -9999 1081.286 1101.44 1134.12 1177.4 1207.96 1227.56 1223.88 1187.32 1214.48 1188.96 1110.96 1022.08 921.92 889 876.56 902.6 957.92 1028.2 1087.96 1130.68 1205.56 1248.08 1305.4 1379.56 1457.28 1361.68 1299.8 1347.36 1421.28 1474.88 1533.72 1585.4 1643.6 1720.84 1790.08 1854.68 1915.28 1966.44 1990.96 2029.56 2056.08 2098.04 2162.68 2225 2279.04 2322.72 2333.68 2316.8 2315.52 2340.72 2364.16 2386.08 2372.28 2289.64 2204.64 2165.48 2131 2069 2012.88 1963.88 1869.2 1802.08 1783.28 1704.4 1650.36 1706 1814.36 1914.24 2012.8 1953.8 1884.48 1834.88 1801.8 1780.56 1770.6 1746.4 1722.88 1794 1890.48 1894.12 1899.2 1863.6 1824.6 1788 1772.04 1705.96 1588.32 1499.44 1412.2 1340.72 1259.24 1181.24 1157.68 1152.16 1191 1217.36 1135.84 1076.24 1028.6 935.76 832.44 764.4 770.24 816.96 858.12 905.28 959.96 926.36 940.92 981.68 1045.92 1048.28 1088.68 1111.16 1024 924.6 848.8 782.28 731.24 680.88 696 730.72 685.36 621.12 554.88 554.8 588.08 629.2 693.6667 721.8889 -9999 -9999 -9999 -9999 -9999 -9999 -9999 -9999 -9999 -9999 -9999 -9999 -9999 -9999 -9999 -9999 -9999 -9999
-9999 -9999 -9999 -9999 -9999 -9999 -9999 -9999 -9999 -9999 -9999 -9999 -9999 -9999 -9999 -9999 -9999 -9999 -9999 -9999 -9999 -9999 -9999 -9999 -9999 -9999 1071.5 1085.44 1122.6 1160.8 1204.4 1208.8 1159.28 1144.92 1160.44 1128 1064.44 959.4 873.92 882.68 918.8 955.8 998.12 1044.52 1110.76 1176.92 1222.84 1267.8 1339.92 1425.84 1483.68 1444.16 1406.8 1370.52 1396.12 1440.32 1493.36 1551.12 1628.08 1716.32 1772.88 1842.8 1932.12 2023.56 2062.96 2094.12 2129.76 2145.96 2176.28 2218.88 2270.08 2270.48 2235.88 2201.52 2189.32 2220.44 2275.56 2308.6 2272 2188.04 2138.04 2077.52 2083.48 2096.56 2032.28 1972.32 1929.8 1904.64 1856.64 1758.04 1666.84 1685.24 1781.04 1879.44 1974.2 1953.36 1873.16 1809.92 1741.32 1700.48 1688.92 1659.16 1645.56 1733.32 1825.96 1833.16 1857.12 1885.84 1892.2 1879.4 1811.6 1695.28 1585.32 1505.24 1444.84 1385.2 1335 1302.48 1281.68 1250.4 1312.8 1281 1203.24 1163.4 1100.16 971.48 876.4 829.92 806.52 751.12 753.24 794.64 842.44 828.32 845 915.6 942.52 951.64 943.28 1016.52 1039.52 962.72 895.4 829.68 765.56 699.08 647.84 652.24 634.36 599.24 547.6 562.52 646.16 741.353 777.6 -9999 -9999 -9999 -9999 -9999 -9999 -9999 -9999 -9999 -9999 -9999 -9999 -9999 -9999 -9999 -9999 -9999 -9999 -9999
-9999 -9999 -9999 -9999 -9999 -9999 -9999 -9999 -9999 -9999 -9999 -9999 -9999 -9999 -9999 -9999 -9999 -9999 -9999 -9999 -9999 -9999 -9999 -9999 -9999 -9999 -9999 1068.857 1098.32 1146.88 1167.24 1126.12 1106.76 1084.32 1079 1046.08 997.88 909.44 867.12 911.52 943.96 985.12 1023.76 1070.96 1140.8 1190 1250.56 1329.08 1405.24 1448.76 1480.64 1501.8 1521.04 1497.48 1497.2 1524.88 1561.12 1627.08 1658.36 1716.48 1777.32 1875.28 1965.84 2018.68 2056.72 2116.4 2142.68 2184.92 2216.12 2235.96 2209.76 2171.96 2133.16 2097.96 2098.12 2144.04 2193.32 2234.96 2210.16 2139.72 2061.44 2001.76 1975.72 1963.6 1917.76 1869.6 1859.56 1862.92 1801.08 1756.28 1677.36 1648.08 1710.12 1806.92 1921.12 1938.36 1873.32 1823.32 1743 1654.48 1605.28 1565.12 1597.92 1675.76 1745.2 1795.2 1827.28 1798.04 1818.92 1862.84 1815.08 1709.64 1632.72 1560.28 1492.52 1451.52 1442.6 1412.6 1328.16 1340.48 1389.92 1349.4 1258.68 1150 1051.72 998.44 1001.88 967.44 922.12 808.52 730.24 702 712.8 718.28 740.6 791.68 810.04 856.04 840.52 924.76 1029.56 1017.2 941.84 891.2 827.44 768.76 688.56 638.16 618.88 578.16 539.6 571.76 635.5 -9999 -9999 -9999 -9999 -9999 -9999 -9999 -9999 -9999 -9999 -9999 -9999 -9999 -9999 -9999 -9999 -9999 -9999 -9999 -9999 -9999
-9999 -9999 -9999 -9999 -9999 -9999 -9999 -9999 -9999 -9999 -9999 -9999 -9999 -9999 -9999 -9999 -9999 -9999 -9999 -9999 -9999 -9999 -9999 -9999 -9999 -9999 -9999 -9999 -9999 -9999 1118 1079.333 1070.5 1018.6 1012.2 999 942.7273 905.88 882.6 935.96 976.68 1029.04 1079.96 1120.56 1159.76 1212.76 1272.6 1334.72 1384.56 1426.48 1460.4 1500.44 1554.16 1589.68 1612.96 1626.88 1655.6 1722.2 1751.68 1756.24 1827.64 1916.36 1993.92 2039.76 2083.84 2127.52 2143.08 2153.36 2131.68 2127.92 2102.6 2064.76 2036.04 2008.32 2031.16 2072.08 2108.68 2153.28 2167.76 2126.04 2075.56 2044.68 1986.68 1908.16 1849.76 1772.68 1740.16 1771.04 1733.64 1675.32 1633.04 1657.4 1736.32 1821.24 1917.12 1914.88 1851.72 1780.28 1721.4 1651.76 1556.56 1500.64 1535.28 1617.96 1707 1737.04 1767.52 1730.68 1735.44 1756.2 1767.12 1738.76 1663.52 1602.16 1582.44 1542.04 1488.16 1414.44 1388.8 1442.68 1480.56 1402.96 1285.84 1147.52 1096.96 1111.16 1156.88 1099 953.72 851.64 770.4 721.92 707.12 709.16 693.08 677.56 705.88 751.04 811.28 909.96 993 1040.84 981.12 917.08 848.2 805.36 739.68 674.44 625.44 572.76 541.48 591.16 686.1177 -9999 -9999 -9999 -9999 -9999 -9999 -9999 -9999 -9999 -9999 -9999 -9999 -9999 -9999 -9999 -9999 -9999 -9999 -9999 -9999 -9999
-9999 -9999 -9999 -9999 -9999 -9999 -9999 -9999 -9999 -9999 -9999 -9999 -9999 -9999 -9999 -9999 -9999 -9999 -9999 -9999 -9999 -9999 -9999 -9999 -9999 -9999 -9999 -9999 -9999 -9999 -9999 -9999 1009.6 975.875 930.7778 898.0526 898.76 866.64 900.4 958.16 998.08 1038.36 1063.88 1082.92 1121.28 1179.56 1245.48 1311.44 1356.64 1401.88 1442.8 1488.44 1540.88 1600.96 1647.04 1682.08 1716.8 1772.48 1821.28 1847.48 1876.32 1924.8 1993.88 2039.28 2084.48 2100.16 2062.48 2050.56 2035.56 2009.68 2002.48 1965.16 1942.6 1936.68 1958.04 1994.4 2032.8 2102.4 2098.48 2084.68 2073.32 2075.6 2058.08 1979.28 1883.24 1794.36 1718.88 1696.6 1703.48 1626.52 1646.76 1707.44 1779.48 1858.08 1944.28 1918.96 1857.12 1772.64 1700.36 1628.52 1539.28 1470.4 1490.6 1567.88 1646.12 1654.88 1691.52 1688.12 1672 1687.16 1690 1682.84 1694.32 1697.4 1666.4 1592.8 1537.52 1510.2 1513.84 1533.28 1516.52 1405.56 1270.6 1231.4 1247.76 1245.24 1211.08 1077.56 948.92 892 880.96 845.08 864.52 843.16 783.84 708.68 639.04 661.52 773.88 853.44 930.48 995.32 944.96 864.12 779.56 723.72 663.12 600.44 553.24 562.8 602.24 681.4 740.2273 -9999 -9999 -9999 -9999 -9999 -9999 -9999 -9999 -9999 -9999 -9999 -9999 -9999 -9999 -9999 -9999 -9999 -9999 -9999 -9999 -9999
-9999 -9999 -9999 -9999 -9999 -9999 -9999 -9999 -9999 -9999 -9999 -9999 -9999 -9999 -9999 -9999 -9999 -9999 -9999 -9999 -9999 -9999 -9999 -9999 -9999 -9999 -9999 -9999 -9999 -9999 -9999 971.9091 937.08 873.96 870.72 859.2 849.88 864.6 906.96 931.32 966.24 991.32 1031.56 1091.68 1125.04 1150.08 1203.68 1261.04 1312.24 1342.2 1389.08 1430.56 1504.88 1581.16 1623.88 1680.84 1747.52 1807.28 1855.48 1895.76 1944.28 1989.96 2043.6 2066.08 2045.08 2013.12 1964.6 1921.76 1916.72 1933.44 1955.56 1926.68 1886.12 1880.24 1912.32 1971.4 2012.68 2042.76 2000.2 1968.24 1966.56 1968.12 1987.56 1921.96 1841.48 1769.12 1698.32 1642.2 1614.72 1615.28 1677.24 1762.88 1840.48 1926.84 1964.4 1912.48 1850.44 1785.68 1708.52 1619.92 1549.32 1454.36 1414.24 1479.52 1564.4 1590.96 1620.84 1641.8 1609.76 1598.36 1615.68 1592.8 1657.4 1714 1708.2 1664.88 1630.96 1611.64 1615.04 1589.92 1490.68 1393.84 1368.84 1395.8 1387.64 1299.56 1180.28 1092.72 1039.48 1015.64 988.2 961.92 945.52 907.08 843.68 761.36 661.76 620.56 710.28 792.72 874.2 956.88 925.04 834.36 767.28 703.48 631.64 561.2 566.44 592.2174 658.2667 738.1667 751.3333 -9999 -9999 -9999 -9999 -9999 -9999 -9999 -9999 -9999 -9999 -9999 -9999 -9999 -9999 -9999 -9999 -9999 -9999 -9999 -9999 -9999
-9999 -9999 -9999 -9999 -9999 -9999 -9999 -9999 -9999 -9999 -9999 -9999 -9999 -9999 -9999 -9999 -9999 -9999 -9999 -9999 -9999 -9999 -9999 -9999 -9999 -9999 -9999 -9999 -9999 -9999 -9999 908.5625 854.84 824.24 854.52 891.16 903.32 932.4 970.96 993.76 1027.2 1053.92 1091.24 1120.72 1168.48 1221.32 1249.36 1270.72 1291.92 1361.64 1412.84 1455.72 1504.48 1551.44 1592.4 1685 1759.64 1825.2 1885.36 1925.6 1978 2012.96 1999.28 1994.04 1969.4 1905 1825.08 1824.72 1857.52 1899.6 1914.88 1882.08 1841.76 1843.2 1887.84 1930.12 1978.16 2038.32 1995.24 1921.04 1872.08 1882.92 1921.08 1894.48 1814.52 1739 1648.8 1595.2 1600.68 1640.92 1703.56 1779.52 1872.04 1966.28 1965.4 1887.68 1811.44 1734.72 1668.12 1606.76 1554.36 1472.68 1385.24 1415.2 1481.48 1525.76 1542.32 1582.08 1536.2 1486.88 1511.72 1500.2 1594.4 1684 1700.56 1695.96 1690.24 1701.24 1696.6 1597.84 1516.52 1483.56 1496.28 1503.68 1413.08 1298 1219.6 1200.36 1185.32 1146.92 1099.44 1054.04 985.68 927.12 872.12 795.44 706.16 621.8 636.52 717.56 802.08 899.32 906.76 837.2 772.6 696.92 634.16 567.48 549.56 596.8182 644 -9999 -9999 -9999 -9999 -9999 -9999 -9999 -9999 -9999 -9999 -9999 -9999 -9999 -9999 -9999 -9999 -9999 -9999 -9999 -9999 -9999 -9999 -9999
-9999 -9999 -9999 -9999 -9999 -9999 -9999 -9999 -9999 -9999 -9999 -9999 -9999 -9999 -9999 -9999 -9999 -9999 -9999 -9999 -9999 -9999 -9999 -9999 -9999 898.75 871.8333 881.6842 891.9583 871.6818 865.68 867.2 835.72 866.88 930.76 954.72 955.8 1009.68 1062.6 1092.4 1112.64 1155.68 1181.16 1174.32 1191.56 1284.76 1337.84 1380.68 1361.36 1426.4 1494.6 1531.68 1567.88 1628.88 1647.84 1695.6 1767.6 1860.2 1935.4 1969.48 2005.84 1986.76 1917.52 1860.4 1831.96 1791.04 1729.56 1737.04 1785.2 1831.92 1851.64 1808.32 1773.52 1807.44 1874.12 1935.64 1990.4 2003.4 1978.4 1947.48 1869.56 1801.76 1831.04 1818.76 1767.08 1716.72 1632.08 1602.2 1663.08 1702.32 1752.64 1844.88 1928.52 1986.48 1972.48 1888.12 1823.4 1762.76 1670.56 1577.56 1515.88 1479.24 1442.56 1370.92 1385.6 1426.28 1485.08 1533.92 1466.96 1411 1424.36 1450 1525.44 1623.24 1622.92 1593.96 1609.2 1637.84 1685.56 1667.32 1609.88 1588.16 1595.68 1529.76 1426.48 1366.88 1349.8 1317.2 1230.04 1163.36 1111.52 1035.04 973.68 920 858 761.56 699.24 642.6 599.4 672.76 758.12 856.28 894.96 840.44 762.48 703.88 647.8 584.2 532.24 571.16 577.353 -9999 -9999 -9999 -9999 -9999 -9999 -9999 -9999 -9999 -9999 -9999 -9999 -9999 -9999 -9999 -9999 -9999 -9999 -9999 -9999 -9999 -9999 -9999
-9999 -9999 -9999 -9999 -9999 -9999 -9999 -9999 -9999 -9999 -9999 -9999 -9999 -9999 -9999 -9999 -9999 -9999 -9999 -9999 -9999 -9999 -9999 -9999 866 872.9583 850.64 843.76 832.88 828.96 839.72 853.2 864.4 960.68 973 994.92 989.56 1030.84 1109.32 1169.92 1201.28 1253.68 1293.96 1299.76 1270.84 1361.68 1429.68 1470.32 1448.96 1462.2 1537.92 1620.84 1670.4 1723.96 1775.6 1810.4 1861.84 1923.48 1960.88 1981.4 1943.16 1887.64 1820.24 1760.68 1700.48 1687.56 1667.32 1698.84 1706.88 1744.16 1744.84 1719.24 1746.6 1823.44 1874 1918.6 1981 2019.64 2012.08 1972.64 1896.76 1815.36 1756.12 1722.84 1691.88 1649.04 1605.2 1585.72 1650.32 1733.88 1817.04 1887.32 1905.08 1904.8 1934 1891.52 1816.24 1735.84 1650 1606.88 1589.24 1590.12 1511.12 1410.6 1345.28 1384.68 1460.04 1481.48 1409.16 1348.52 1347.44 1417.76 1493.36 1569.72 1564.92 1512.72 1530.8 1534.52 1616.28 1660.64 1637.48 1575.96 1562 1528.28 1480.64 1451.4 1395.92 1330.08 1261.88 1207.32 1134.12 1045.8 958 896.92 817 755.48 739.32 686.92 599.32 614.2 700.36 770.84 850.68 818.48 740.52 679.12 604.52 556.48 535.8 538.48 544.4 565.9375 536.0476 532.4 557.3478 543.7692 -9999 -9999 -9999 -9999 -9999 -9999 -9999 -9999 -9999 -9999 -9999 -9999 -9999 -9999 -9999 -9999 -9999 -9999
-9999 -9999 -9999 -9999 -9999 -9999 -9999 -9999 -9999 -9999 -9999 -9999 -9999 -9999 -9999 -9999 -9999 -9999 -9999 -9999 -9999 -9999 -9999 -9999 -9999 808.3158 806.12 840.8 889.2 898.96 924.24 931.32 944.68 1007.16 1013.8 1046.8 1062.08 1058.72 1117.88 1185.28 1230.16 1276.36 1316.64 1339.08 1350.84 1379.68 1425.08 1475.16 1525.72 1563.32 1613.84 1681.2 1726.44 1779.4 1824.24 1878.36 1931.2 1942.8 1914.12 1853.24 1797.64 1742.28 1696.8 1668.84 1675.64 1625.32 1614.6 1649.8 1641.52 1645.96 1641.16 1661.08 1738.36 1801 1850.56 1890.24 1957.56 1991.4 1946.16 1922.28 1888.6 1840.4 1785.68 1719.8 1654.16 1592.56 1567.92 1618.52 1676.8 1746.64 1845.84 1898.2 1849.84 1820.44 1836.96 1859.72 1810.16 1740.8 1713.52 1707.6 1698.4 1630.16 1530.68 1440.68 1356.12 1328.72 1373.72 1426.36 1364.16 1285.36 1302.36 1390.2 1471.32 1543.56 1521.6 1435.2 1412 1444.36 1547.32 1603.36 1600.36 1549.64 1508.4 1524.96 1518 1462.96 1383.64 1316.44 1269.2 1206.04 1135.04 1059.84 1008.96 917.44 872.48 877.36 826.52 730.84 629.28 586.2 628.16 697.84 804.76 803.92 748.16 694.64 637.84 584.52 565.28 614.04 646.92 594.28 527.72 534.56 545.08 529.68 533.1667 -9999 -9999 -9999 -9999 -9999 -9999 -9999 -9999 -9999 -9999 -9999 -9999 -9999 -9999 -9999 -9999 -9999
-9999 -9999 -9999 -9999 -9999 -9999 -9999 -9999 -9999 -9999 -9999 -9999 -9999 -9999 -9999 -9999 -9999 -9999 -9999 -9999 -9999 -9999 -9999 -9999 -9999 823.5 859.36 893.56 936.12 967.8 985.72 997.36 1013.12 1057.08 1081.12 1132.88 1167.96 1107.32 1111.04 1161.84 1230.48 1274.6 1327.76 1372.64 1401.92 1432.32 1468.56 1480.36 1543.24 1610.72 1679 1724.4 1756.24 1802.16 1851.4 1897.68 1900.64 1852.04 1810.76 1769.6 1735.72 1663.92 1625.48 1595.04 1646.68 1621.32 1542.88 1547.92 1551.04 1564.36 1633.72 1699.76 1755.68 1807.88 1857.36 1903.68 1953.24 1959.4 1948.96 1891.16 1811.28 1800.32 1787.2 1717.56 1643.2 1588.72 1589.76 1665.36 1739.48 1810.96 1853.04 1850.76 1832.2 1786.2 1767.76 1807.04 1815.64 1819.92 1821.72 1782.92 1690.44 1599.2 1524.88 1476.76 1427.44 1333.76 1295.32 1310.32 1279.64 1217.12 1239.4 1331.04 1444.56 1500.8 1456.68 1344.6 1319.24 1402.16 1471.4 1492.64 1532.16 1530.56 1457.04 1438.08 1427.08 1395.52 1347.32 1298.52 1247.76 1219.96 1163.44 1129.92 1048.32 1008.12 1004.92 947.12 867.16 753.6 692.96 646.16 586.68 651.92 781.16 809 782.68 738.2 688.76 645.2 653.36 656.68 623.56 560.4 532.12 537.8 531.8333 537.2941 532 -9999 -9999 -9999 -9999 -9999 -9999 -9999 -9999 -9999 -9999 -9999 -9999 -9999 -9999 -9999 -9999 -9999
-9999 -9999 -9999 -9999 -9999 -9999 -9999 -9999 -9999 -9999 -9999 -9999 -9999 -9999 -9999 -9999 -9999 -9999 -9999 -9999 -9999 -9999 -9999 -9999 -9999 -9999 914.1111 936.12 978.32 1004.72 1039.12 1067.88 1082.36 1138 1149.52 1151.08 1181.36 1166.92 1192.8 1225.8 1285.32 1325.2 1371.16 1420.24 1465.36 1493.04 1510.92 1534.52 1585.48 1644.84 1705.28 1741.28 1785.6 1825.68 1873.08 1898.96 1860.6 1790.52 1738.36 1702.76 1673.68 1646.48 1592.48 1533.72 1554.16 1574.76 1497.16 1469.16 1552.48 1603.44 1678.96 1725.04 1758.92 1800.24 1856.88 1911 1959.84 1944.44 1889.36 1874.92 1803.28 1749.16 1708.04 1656.08 1612.32 1570.84 1582.04 1652 1729.44 1794.52 1818.12 1786.48 1781.4 1761.52 1703 1694.32 1742.92 1819.16 1828.28 1760.72 1680.24 1622.4 1569.08 1542.88 1490.56 1399.88 1314.84 1240.92 1196.2 1187.72 1183.32 1277 1345.08 1389.92 1381.16 1275.92 1251.52 1338.24 1346.04 1390.72 1456.4 1460.64 1390.44 1363.64 1329.32 1320.68 1314.48 1285.92 1263.44 1238.28 1206.84 1184.68 1121.16 1105.96 1036.72 974.08 893.32 819.64 763.36 672.4 583.96 625.84 730.04 784.28 798.72 734.16 697.44 678.32 634.72 599.8 581.32 529.52 543.2 554.1667 -9999 -9999 -9999 -9999 -9999 -9999 -9999 -9999 -9999 -9999 -9999 -9999 -9999 -9999 -9999 -9999 -9999 -9999 -9999 -9999
-9999 -9999 -9999 -9999 -9999 -9999 -9999 -9999 -9999 -9999 -9999 -9999 -9999 -9999 -9999 -9999 -9999 -9999 -9999 -9999 -9999 -9999 -9999 -9999 -9999 -9999 905 917.3636 951.4 989.32 1027.56 1087.16 1145.2 1196.4 1235.68 1267.36 1296.48 1289.96 1297.8 1318.6 1334.48 1349.52 1393.6 1432.16 1477.6 1521.52 1568.88 1623.4 1673.2 1719.56 1744.04 1775.12 1809.96 1859.48 1887.32 1817.48 1754.28 1700.76 1649.88 1627.96 1611.52 1589.64 1584 1503.24 1481 1498.16 1450.28 1466.24 1581.48 1666.52 1701.6 1730.08 1773.88 1822.44 1882.12 1916.4 1947.04 1942.84 1880.8 1806.96 1767.68 1706.96 1652.68 1610.16 1569.96 1550.04 1610.16 1667.04 1745.8 1761.12 1712.68 1700.56 1692 1669.32 1643.6 1624.68 1677.2 1738.44 1791.4 1767.72 1710.68 1668.68 1654.72 1617.48 1527.44 1441.44 1369.76 1332.2 1309.24 1243.84 1136.48 1159.04 1226.12 1299.36 1299.96 1201.16 1184.68 1236.24 1281.88 1355.56 1396 1358.16 1289.64 1269.84 1244 1203.12 1246.08 1259.24 1234.04 1197.44 1178.76 1189.6 1173.6 1112 1024.44 940.44 878.48 810.84 748.76 675.24 598.72 592.56 625.36 715.84 766.24 751.04 711.96 658.48 604.72 560.92 531.76 532.84 554.76 560.2 -9999 -9999 -9999 -9999 -9999 -9999 -9999 -9999 -9999 -9999 -9999 -9999 -9999 -9999 -9999 -9999 -9999 -9999 -9999 -9999
-9999 -9999 -9999 -9999 -9999 -9999 -9999 -9999 -9999 -9999 -9999 -9999 -9999 -9999 -9999 -9999 -9999 -9999 -9999 -9999 -9999 -9999 -9999 -9999 -9999 -9999 -9999 900.8696 929.48 987.72 1033.64 1087.64 1143.52 1197.6 1253.56 1297.2 1323 1343.28 1369.56 1406.64 1423.2 1440.92 1465.6 1497.2 1514.72 1537.48 1583.16 1650.8 1704.12 1750.8 1780.6 1822.16 1867.12 1885.48 1840.36 1767.24 1676.48 1596.48 1552.32 1559.8 1541.76 1528.64 1552.64 1489.4 1384.96 1351.16 1389.88 1507.44 1603.08 1670.28 1706.76 1737.28 1762.68 1798.8 1836.52 1853.28 1888.2 1891.64 1852.32 1827.12 1790.56 1709.6 1638.12 1580.68 1540.6 1564.56 1642.28 1717.12 1750.04 1704.48 1629.2 1618.84 1598.88 1583.68 1575.84 1562.72 1621.84 1662.48 1701.96 1734.84 1751.08 1741.4 1711.52 1660 1581.16 1529.84 1480.4 1415.72 1321.88 1221.64 1106.68 1076.76 1120.64 1192.6 1230.16 1161.48 1110.8 1172.56 1263.04 1330 1313.24 1261.68 1210.88 1200.96 1219.16 1172.44 1209.16 1242.08 1210.92 1164.04 1101.56 1102.6 1164.28 1161 1058.4 1001.12 925.24 836.32 758.76 692.76 628.44 581.6 563.68 644.32 699.64 699.32 681.4 640.24 596.32 547.56 537.68 557.12 559.5 557 -9999 -9999 -9999 -9999 -9999 -9999 -9999 -9999 -9999 -9999 -9999 -9999 -9999 -9999 -9999 -9999 -9999 -9999 -9999 -9999
-9999 -9999 -9999 -9999 -9999 -9999 -9999 -9999 -9999 -9999 -9999 -9999 -9999 -9999 -9999 -9999 -9999 -9999 -9999 -9999 -9999 -9999 -9999 -9999 -9999 -9999 936.25 963.4 984.04 1028.16 1079.2 1123.44 1177.4 1202.36 1230.88 1271.76 1306.4 1335.32 1371.44 1413.44 1437.28 1473.12 1514.36 1555.8 1564.76 1585.84 1622.76 1681.88 1745 1803.12 1836.88 1872.8 1926.24 1883.04 1798.6 1708.76 1621 1532.56 1483.32 1492 1456.76 1470.96 1457.52 1404.76 1326.44 1356.36 1453.32 1556.16 1607.32 1650.88 1687.36 1704.72 1709.44 1746.52 1770.2 1796.48 1834.68 1850.64 1819.6 1835.72 1800.68 1714.84 1645.92 1580.8 1537.28 1582.04 1666.16 1743.04 1719.8 1664 1583.76 1556.44 1535.92 1506.64 1499.56 1528.36 1605.24 1609.56 1621.84 1636.64 1666.56 1679.12 1690.08 1697.52 1653.2 1601.76 1506.16 1384.56 1284.52 1197.64 1125.4 1054.2 1046.8 1116.92 1160.8 1096.08 1043.44 1112.28 1212.32 1253.48 1227.2 1197.4 1150.6 1142.44 1163.64 1127.6 1156.08 1201.08 1194.96 1142.92 1078.88 1037.24 1100.56 1120.28 1085.24 1044.92 946.72 877.6 812.2 737 660.52 579.32 550.32 579.76 645.2 647.76 631.12 595.44 567.08 534.64 549.04 564.0909 558 -9999 -9999 -9999 -9999 -9999 -9999 -9999 -9999 -9999 -9999 -9999 -9999 -9999 -9999 -9999 -9999 -9999 -9999 -9999 -9999 -9999
-9999 -9999 -9999 -9999 -9999 -9999 -9999 -9999 -9999 -9999 -9999 -9999 -9999 -9999 -9999 -9999 -9999 -9999 -9999 -9999 -9999 -9999 -9999 -9999 -9999 -9999 941.7 976.2 1019.44 1078.56 1138.72 1191.56 1240.2 1265.92 1299.32 1323.24 1353.12 1393.2 1406.44 1429.6 1437.96 1486.12 1540.52 1576.64 1602.24 1636.08 1683.44 1728.68 1779.28 1831 1868.52 1916.32 1930.2 1881.08 1800.48 1706 1627.88 1525.32 1439.4 1420.64 1396.2 1421.72 1391.16 1318.48 1293.6 1380.6 1478.56 1537.4 1586.6 1623.88 1657.24 1664.96 1683.68 1707.52 1733.84 1778.36 1844.08 1878.72 1881.12 1857.2 1790.52 1708.4 1636.6 1575.44 1527.32 1565.2 1622.28 1668.96 1610.6 1602.2 1548.4 1484.88 1461.52 1439.6 1470.84 1517.96 1568.2 1513.64 1479.32 1490.2 1530.24 1558.48 1577.96 1608.72 1633.88 1599.36 1507.96 1411.36 1337.64 1272.64 1181.48 1111.72 1031.24 1022.32 1068.64 1032.4 998.04 1042.32 1137.52 1149.72 1122.6 1093.16 1050.64 1047.68 1063.04 1063.2 1111.4 1171.48 1180.44 1106.6 1005.36 952.92 1002.56 1018.52 1019.28 1011.56 956.8 919.8 859.6 792.72 712.28 653.32 587.84 541.8 564.36 601.24 579.48 557.64 525.36 537.16 568.2083 573.3333 -9999 -9999 -9999 -9999 -9999 -9999 -9999 -9999 -9999 -9999 -9999 -9999 -9999 -9999 -9999 -9999 -9999 -9999 -9999 -9999 -9999 -9999
-9999 -9999 -9999 -9999 -9999 -9999 -9999 -9999 -9999 -9999 -9999 -9999 -9999 -9999 -9999 -9999 -9999 -9999 -9999 -9999 -9999 -9999 -9999 -9999 -9999 -9999 1021.714 1008.8 1045.96 1110.08 1150.24 1208.64 1251.92 1295.6 1334.24 1368.76 1410.44 1429.48 1441.68 1472.48 1514.88 1560.24 1600.88 1629.28 1653.24 1681.48 1710.52 1761.52 1817.92 1851.8 1889.92 1914.16 1896.92 1791.84 1715 1635.48 1606.92 1536.96 1437.6 1356.48 1313.52 1334.36 1296.16 1249.8 1306.88 1396.2 1481.84 1524.52 1565.16 1581.76 1617.12 1637.76 1666.24 1704.52 1752.56 1798.76 1862.92 1940 1941.64 1880.04 1804.44 1733.52 1661.44 1590 1533.32 1495.32 1546.48 1603.84 1538.36 1523.48 1478.28 1414.6 1343.76 1369.84 1415.96 1450.8 1503.52 1454.44 1375.08 1371.08 1412.84 1450.56 1466.4 1485.2 1527.88 1581.08 1563.28 1490.16 1398.56 1316.12 1260.56 1183.08 1080.6 983 965.8 955.36 931.36 973.92 1035.6 1023.32 1004.24 974.44 972.64 990.4 978.64 1025.48 1106.64 1149 1135.8 1075.76 999.4 912.6 917.8 916.76 961.64 947.88 906.08 891.6 857.28 792.2 708 651.2 594.16 539.52 535.88 548.28 530.84 522.72 522.84 540.6 562.4 -9999 -9999 -9999 -9999 -9999 -9999 -9999 -9999 -9999 -9999 -9999 -9999 -9999 -9999 -9999 -9999 -9999 -9999 -9999 -9999 -9999 -9999 -9999
-9999 -9999 -9999 -9999 -9999 -9999 -9999 -9999 -9999 -9999 -9999 -9999 -9999 -9999 -9999 -9999 -9999 -9999 -9999 -9999 -9999 -9999 -9999 -9999 -9999 1115.556 1115.417 1074 1091 1129.48 1169.72 1211.72 1240 1299.96 1351.04 1391.6 1414.16 1445.64 1483.44 1544.12 1580.48 1617.16 1651.44 1677.04 1707.16 1725.16 1739.12 1771.6 1812 1853.08 1890.64 1910.08 1855.08 1736.92 1619.12 1523 1459.04 1442.68 1415.96 1308.36 1242.76 1232.96 1218.76 1253.68 1324.32 1376.2 1435.28 1479.04 1508.68 1531.88 1559.68 1585.88 1654.8 1712.28 1781.28 1835.92 1909.24 1957.52 1907.32 1878.12 1814.56 1757.84 1696.44 1618.52 1541.48 1476.24 1523 1548.64 1460.8 1408.64 1358.28 1319.36 1238.4 1270.36 1308.08 1348.52 1417 1372.84 1288.52 1239.16 1281 1352.44 1355.48 1360.08 1429.72 1495.72 1487.16 1504.04 1433.28 1370.44 1296.04 1209.84 1127.32 1049.96 981 909.44 861.76 896 929.64 943.24 929.8 898.56 922.44 960.6 1022.76 1081.24 1119.76 1118.56 1104.96 1058.6 1000.64 908 851.32 838.6 893.84 901.12 864.4 834.56 811.8 737.36 672.36 612.32 549.08 524.6 524.24 516.56 522.2 558.56 556.1053 550 -9999 -9999 -9999 -9999 -9999 -9999 -9999 -9999 -9999 -9999 -9999 -9999 -9999 -9999 -9999 -9999 -9999 -9999 -9999 -9999 -9999 -9999 -9999 -9999
-9999 -9999 -9999 -9999 -9999 -9999 -9999 -9999 -9999 -9999 -9999 -9999 -9999 -9999 -9999 -9999 -9999 -9999 -9999 -9999 -9999 -9999 -9999 -9999 -9999 1097.895 1143.32 1149.44 1145.92 1181.32 1210.32 1263.76 1299.16 1313.92 1351.08 1400.28 1434.32 1455.96 1483.8 1533.28 1582.24 1614.36 1651.36 1692.08 1730.2 1769.72 1813.96 1808.72 1827.2 1880.28 1866.84 1811.36 1699.92 1581.92 1528.8 1443.44 1345.64 1336.4 1343.04 1264.68 1184.52 1205.44 1270.16 1317.84 1344.96 1388.68 1457.36 1501.52 1520 1529.96 1553.04 1614.2 1679.68 1741.8 1813.56 1872.48 1915.4 1963.04 1924.16 1865.56 1793.32 1720.8 1649.4 1585.52 1520.16 1466.16 1475.44 1446.32 1387.68 1346.56 1300.8 1243.2 1194.12 1165.32 1186.28 1237.84 1283.64 1251.08 1214.84 1155.96 1203.8 1274.04 1262 1286.84 1372 1394.12 1359.88 1433.8 1418.52 1356.32 1312.16 1246.96 1173.96 1110.6 1037.64 948.44 814.2 789.52 833.76 851.44 841 872.92 930.12 1003.56 1072.16 1110.68 1086.2 1071.28 1103.48 1112.36 1060.8 988.04 872.84 788.68 784.64 835.44 833.2 805.6 756.56 695.08 636.2 578.44 531.2 518.68 523 535.48 537.92 572.6429 559 -9999 -9999 -9999 -9999 -9999 -9999 -9999 -9999 -9999 -9999 -9999 -9999 -9999 -9999 -9999 -9999 -9999 -9999 -9999 -9999 -9999 -9999 -9999 -9999 -9999
-9999 -9999 -9999 -9999 -9999 -9999 -9999 -9999 -9999 -9999 -9999 -9999 -9999 -9999 -9999 -9999 -9999 -9999 -9999 -9999 -9999 -9999 -9999 -9999 -9999 1071 1119.64 1163.68 1195.44 1185.2 1237.88 1275.84 1316.8 1358.08 1370.04 1399.24 1418.92 1441.64 1447.28 1484.48 1532.76 1584.44 1626.8 1678.16 1726.76 1786.28 1837.64 1872.6 1904.8 1895.56 1799.64 1698.32 1602.76 1475.4 1418.2 1355.12 1274.48 1253.24 1231.84 1153.16 1182.76 1244.32 1290.04 1340 1403.76 1479.24 1530.8 1574.72 1614.28 1621.4 1632.52 1655.04 1681.68 1722.88 1774.64 1812.92 1858.8 1931.16 1928.44 1842.76 1754.68 1689.72 1617.48 1564.24 1529.76 1478 1441.08 1445.68 1437.12 1426.88 1385.84 1338.52 1249.52 1168.68 1093.4 1142.04 1150.64 1128.8 1137.68 1074.8 1107.84 1184.56 1174.08 1216.52 1278.88 1259.64 1254.28 1340.68 1363.36 1292.28 1260.36 1241.72 1169.76 1064.44 993.56 909 808.52 733.12 771.92 798.72 795.16 867.96 958.28 1019.04 1043.76 1058.16 1063.64 1018.88 1063.2 1099.56 1053.16 972.12 857.52 764.8 713 766.16 774.04 757.28 744.12 667.52 601.16 546.36 527.44 519.6 535.72 572.05 561.5 -9999 -9999 -9999 -9999 -9999 -9999 -9999 -9999 -9999 -9999 -9999 -9999 -9999 -9999 -9999 -9999 -9999 -9999 -9999 -9999 -9999 -9999 -9999 -9999 -9999 -9999 -9999
-9999 -9999 -9999 -9999 -9999 -9999 -9999 -9999 -9999 -9999 -9999 -9999 -9999 -9999 -9999 -9999 -9999 -9999 -9999 -9999 -9999 -9999 -9999 -9999 1001.5 1033.04 1089.2 1145.48 1198.2 1200.84 1228.92 1266.08 1305.28 1359.2 1398.28 1418.72 1448.56 1495.92 1492.72 1502.96 1537 1581.56 1635.04 1693.28 1747.68 1808.44 1852.12 1900.16 1944.68 1953.28 1862.08 1679.08 1582.08 1456.16 1348 1263.6 1221.6 1183.2 1138.4 1150.52 1194.76 1236.2 1282.64 1342.12 1405.88 1480.04 1533.12 1568.44 1590.56 1562.96 1557.88 1587.04 1626.08 1672.64 1738.84 1810.08 1878.2 1904.24 1896.56 1843.88 1783.32 1712.36 1653.92 1594.72 1556.32 1535.16 1509.96 1533.12 1526.88 1530.12 1499.08 1395.16 1298.44 1216.84 1111.96 1037.44 1022.4 1010.12 1062.76 994.08 985.84 1071.92 1082.68 1126.8 1206.28 1173.36 1174.32 1231.44 1270.88 1221.84 1145.32 1145.28 1074.12 1011.8 961.08 899.32 824.04 749.96 716.6 717.6 741.76 827.72 915.84 955.64 983.24 996.2 1008.64 977.84 1016.88 1031.52 1034.24 972.04 890.2 778 691 673.4 684.08 648.8 643.56 644.28 607 539.92 514.84 528.08 582.0667 -9999 -9999 -9999 -9999 -9999 -9999 -9999 -9999 -9999 -9999 -9999 -9999 -9999 -9999 -9999 -9999 -9999 -9999 -9999 -9999 -9999 -9999 -9999 -9999 -9999 -9999 -9999 -9999 -9999
-9999 -9999 -9999 -9999 -9999 -9999 -9999 -9999 -9999 -9999 -9999 -9999 -9999 -9999 -9999 -9999 -9999 -9999 -9999 -9999 -9999 -9999 -9999 -9999 994.7273 1022.84 1073.32 1131.72 1186.68 1233.96 1261.92 1258.72 1279.8 1317.2 1362.6 1407.36 1449.8 1504.4 1542.4 1581.8 1600 1616.64 1666.12 1709.32 1749.56 1812.24 1851.96 1896.92 1945.76 1948.36 1794.68 1636.08 1533.64 1438.36 1364.76 1329.04 1274.56 1174.52 1112.6 1155.36 1216.48 1261.32 1312.68 1362.04 1418 1478.16 1515.4 1502.96 1490.76 1488.04 1525.24 1570.24 1634.08 1713.04 1795.64 1842.32 1882.12 1900.08 1881.84 1884.08 1818 1735.8 1677.52 1624.76 1649.8 1619.6 1577.72 1591.16 1612.6 1618.68 1546.56 1442.64 1344.96 1211.36 1113.56 1088.04 1062.64 1011.64 985.28 937.28 888.76 941.52 967.68 1031.24 1126.36 1109.44 1067.24 1110.28 1175.04 1152.68 1061.48 1043.44 1005.32 954 955.16 923.92 895.12 859.6 798.16 718.12 685.44 764.44 854.88 871.04 916.76 945.04 929.76 933.96 951.96 962.92 982.4 925.92 858.4 804.48 726.72 672.2 657.88 632.24 600.68 568.92 578.68 535.08 507.68 534.5789 -9999 -9999 -9999 -9999 -9999 -9999 -9999 -9999 -9999 -9999 -9999 -9999 -9999 -9999 -9999 -9999 -9999 -9999 -9999 -9999 -9999 -9999 -9999 -9999 -9999 -9999 -9999 -9999 -9999 -9999
-9999 -9999 -9999 -9999 -9999 -9999 -9999 -9999 -9999 -9999 -9999 -9999 -9999 -9999 -9999 -9999 -9999 -9999 -9999 -9999 -9999 -9999 -9999 -9999 993.25 1004.56 1054.88 1110.92 1170.8 1213.8 1248 1279.72 1312.44 1358.16 1390.36 1398.2 1430.12 1483 1538.68 1597.04 1632.96 1633.68 1658.76 1699.76 1747.32 1787.64 1845.04 1896.24 1949.04 1949.32 1825.64 1708.24 1617.8 1510.16 1417.28 1344.92 1242.04 1129 1118.68 1177.04 1221.8 1271.12 1321.64 1362.32 1413.72 1449.28 1441.96 1426.32 1460.48 1514 1588.68 1632.96 1681.08 1745.52 1804.36 1853.56 1905.2 1925.6 1920.44 1912.56 1862.16 1795.24 1735.04 1687.28 1718.64 1685.12 1643.8 1663.12 1673.24 1649.68 1569.72 1469.04 1325.32 1225.84 1204.68 1224.88 1175.88 1129.88 1023.68 952.16 904.44 837.92 863.28 961.92 1027.24 1029.08 975.4 1014.24 1071.4 1055.36 978.72 914.28 906.28 887.68 907.04 936.88 987.08 958.52 868.72 762.4 661.8 696.36 743.96 780.68 838.56 887.44 859.04 884.6 906.08 934.32 908.64 851.8 792.52 761.56 739.96 721.2 702.44 677.24 648.52 600.84 545.32 511.72 517.16 544.5 -9999 -9999 -9999 -9999 -9999 -9999 -9999 -9999 -9999 -9999 -9999 -9999 -9999 -9999 -9999 -9999 -9999 -9999 -9999 -9999 -9999 -9999 -9999 -9999 -9999 -9999 -9999 -9999 -9999 -9999
-9999 -9999 -9999 -9999 -9999 -9999 -9999 -9999 -9999 -9999 -9999 -9999 -9999 -9999 -9999 -9999 -9999 -9999 -9999 -9999 -9999 -9999 -9999 -9999 988.875 990.84 1027.92 1073.24 1129.08 1169.84 1214.96 1248.96 1287.2 1339.32 1387.16 1415.96 1420.72 1478.16 1523.36 1574.48 1611.6 1630 1653.48 1693.12 1737.8 1783.64 1851.92 1904.12 1930.04 1928.24 1867.92 1806.68 1736.48 1603.92 1495.16 1385.72 1259.36 1129.44 1092.44 1158.8 1208.2 1257.8 1316.76 1353.24 1335.4 1332.56 1351.08 1423.6 1496.08 1571.32 1603.36 1649.6 1704.68 1761.28 1812.96 1864.56 1920.24 1966.2 1950.36 1946.8 1899.36 1864.52 1804.68 1781.8 1796.68 1753.8 1749.16 1761.88 1705.32 1637.16 1537.88 1432.4 1350.36 1334.32 1360.28 1343.92 1269.36 1197.56 1125.56 1094.04 1012.8 896.76 809.4 847.6 898 925.12 882.96 929.52 929.32 948.48 928.8 863.56 813.6 828.12 880.2 919.36 941.68 930.48 866.56 789.6 692.36 632.28 665.32 733.2 785.4 829.28 792.96 816.48 854.6 898.2 819.6 763.84 747.4 712.4 685.04 676.56 650 626.04 609.52 572.48 527.24 507.72 536.68 559.5 -9999 -9999 -9999 -9999 -9999 -9999 -9999 -9999 -9999 -9999 -9999 -9999 -9999 -9999 -9999 -9999 -9999 -9999 -9999 -9999 -9999 -9999 -9999 -9999 -9999 -9999 -9999 -9999 -9999 -9999
-9999 -9999 -9999 -9999 -9999 -9999 -9999 -9999 -9999 -9999 -9999 -9999 -9999 -9999 -9999 -9999 -9999 -9999 -9999 -9999 -9999 -9999 -9999 -9999 -9999 1007.824 1010.32 1046.68 1095.84 1136.96 1186.64 1223.8 1263.68 1312.48 1363.64 1419.24 1445.52 1466.88 1507.88 1555.68 1598.76 1604.92 1646.44 1685.96 1725.4 1754.76 1794.4 1841.12 1861.92 1862.08 1805.88 1701 1660.44 1530.68 1405.2 1304.2 1218.84 1120.76 1070.44 1111.64 1184.8 1262.6 1253.68 1229.52 1254.12 1319.24 1402.12 1447.2 1483.64 1522.68 1582.36 1647.6 1695.6 1769.32 1840.12 1891.84 1949.32 1990.16 1973.96 1960.48 1950.4 1921 1857.6 1866.2 1897.28 1860.24 1828.76 1776.4 1694.48 1608.64 1531.44 1481 1486.84 1495.88 1454.44 1385.6 1314.84 1256.4 1165.32 1118.48 1033.4 928.64 816.44 760.6 774.16 803.2 804.64 824 828.92 832.52 861.16 823.36 755.24 755.28 814.52 829.52 821.28 816.76 819.8 799.68 707.52 634.44 643.16 685.2 727.84 756.32 722.84 746.52 809.48 805.72 746.68 699.64 704.2 681.08 631.56 605.72 580.88 563.08 539.6 520.04 514.36 534.64 574.7727 -9999 -9999 -9999 -9999 -9999 -9999 -9999 -9999 -9999 -9999 -9999 -9999 -9999 -9999 -9999 -9999 -9999 -9999 -9999 -9999 -9999 -9999 -9999 -9999 -9999 -9999 -9999 -9999 -9999 -9999 -9999
-9999 -9999 -9999 -9999 -9999 -9999 -9999 -9999 -9999 -9999 -9999 -9999 -9999 -9999 -9999 -9999 -9999 -9999 -9999 -9999 -9999 -9999 -9999 -9999 -9999 1031.75 1035.76 1032.88 1061.12 1108 1154.48 1198.64 1233.96 1278.36 1340.36 1398.64 1452.96 1480.04 1493.4 1519.72 1532.8 1575.2 1622.88 1654.56 1665.12 1694.76 1735.96 1793.6 1811.6 1762.76 1648.4 1539.24 1467.84 1382.36 1322.44 1266.12 1263.44 1187.08 1115.24 1071.28 1124.44 1197.88 1158.24 1185.72 1238.48 1293.52 1318.64 1360.56 1418.64 1487.16 1550.2 1632.16 1711.6 1794.32 1870.44 1930.12 1967.56 1992.32 2012.92 1988.68 1988.88 1967.56 1954.8 1963.56 1956.84 1917.56 1867.48 1795 1714.04 1622.24 1562.08 1551.8 1598.2 1547.96 1422.24 1323.6 1248.64 1177.56 1077 989.2 929.8 867.28 833.92 834.08 783.92 748.72 727.16 722.6 722.6 714 734.24 731.04 682.44 681.64 719.44 737.36 718.52 718.88 749.8 711.12 639.56 596.12 604.92 621.76 662.32 673.16 669.48 715.44 780.44 740.08 681.52 634.6 638.76 631.48 572.68 524.24 524.16 517.64 509.56 507.56 537.6 565.0526 588.8333 -9999 -9999 -9999 -9999 -9999 -9999 -9999 -9999 -9999 -9999 -9999 -9999 -9999 -9999 -9999 -9999 -9999 -9999 -9999 -9999 -9999 -9999 -9999 -9999 -9999 -9999 -9999 -9999 -9999 -9999 -9999
-9999 -9999 -9999 -9999 -9999 -9999 -9999 -9999 -9999 -9999 -9999 -9999 -9999 -9999 -9999 -9999 -9999 -9999 -9999 -9999 -9999 -9999 -9999 -9999 -9999 -9999 1058.174 1037.12 1049.4 1092.36 1137.72 1176.2 1215.32 1262.32 1312.36 1365.56 1422.48 1447.32 1427.04 1443.84 1480.32 1532.36 1582.4 1602.6 1604.16 1654.12 1708.6 1772.24 1808.72 1758.64 1662.96 1572.88 1518.08 1483.88 1438.44 1400.44 1368 1271.6 1155.96 1064.24 1078.92 1091.52 1107.36 1147.56 1192.48 1249.56 1311.68 1394.2 1479.16 1553.92 1629.16 1701.6 1785.32 1870.88 1919.48 1942.64 1967.68 2000.88 2038.04 2035.84 2031.28 2027.6 2044.44 2024.48 1973 1909.64 1841.48 1790.64 1722.44 1649.88 1610.12 1599.2 1570.64 1511.56 1390.28 1293.4 1174.8 1054.32 991.24 924.04 932.72 934.08 911.84 923.68 886.52 846 774.28 765.72 812.96 770.28 715.08 717.16 711.92 708.04 687.6 663.88 638.8 627.84 633.68 623.2 603.64 646.44 620.16 604.04 596.64 604.68 630.88 672.4 715.88 695.24 649.48 589.04 577.2 593.96 550.28 538.92 554.12 508.6 505.28 552.2083 591.2222 -9999 -9999 -9999 -9999 -9999 -9999 -9999 -9999 -9999 -9999 -9999 -9999 -9999 -9999 -9999 -9999 -9999 -9999 -9999 -9999 -9999 -9999 -9999 -9999 -9999 -9999 -9999 -9999 -9999 -9999 -9999 -9999 -9999
-9999 -9999 -9999 -9999 -9999 -9999 -9999 -9999 -9999 -9999 -9999 -9999 -9999 -9999 -9999 -9999 -9999 -9999 -9999 -9999 -9999 -9999 -9999 -9999 -9999 -9999 1039.818 1033.24 1027.92 1070.16 1114.4 1137.56 1169.96 1217.04 1267.16 1325.52 1355.16 1343.36 1369.44 1403.88 1431.84 1479.92 1526.04 1542.56 1568.56 1631.6 1685.76 1738.6 1785.84 1782.12 1715.6 1640.16 1577.64 1525.88 1450.92 1382.4 1311.28 1209.48 1117.36 1051.24 1033.52 1089.12 1146.36 1194.6 1260.08 1351.2 1425.48 1490.64 1550.32 1634.24 1706.6 1750.68 1805 1869.64 1888.64 1924.48 1953.4 1997.92 2053.72 2081.52 2067.2 2054 2063.16 1991.36 1937.88 1885.12 1828.56 1775.12 1734.24 1691.44 1611.12 1547.36 1482.84 1406.88 1321.12 1210.44 1117.72 1057.08 1059.52 1044.64 1076.56 1042.2 1053.36 1019.28 971.32 894.76 823.24 860.76 918.12 855.68 841.4 843.2 831.44 853.24 799.48 751.2 718 706.2 669.32 656.8 696.88 755.96 766.04 754.68 698.76 631.64 585.6 625.52 669 624.24 622.68 580.16 528.92 543.24 549.6 575.6 606.2 533.12 497.04 535.0833 558 -9999 -9999 -9999 -9999 -9999 -9999 -9999 -9999 -9999 -9999 -9999 -9999 -9999 -9999 -9999 -9999 -9999 -9999 -9999 -9999 -9999 -9999 -9999 -9999 -9999 -9999 -9999 -9999 -9999 -9999 -9999 -9999 -9999
-9999 -9999 -9999 -9999 -9999 -9999 -9999 -9999 -9999 -9999 -9999 -9999 -9999 -9999 -9999 -9999 -9999 -9999 -9999 -9999 -9999 -9999 -9999 -9999 -9999 -9999 -9999 1006.375 996 1029.76 1056.6 1082.64 1120.68 1175.88 1239.6 1277.08 1259.6 1277.84 1293.36 1334.12 1399.36 1470.92 1481.2 1490.68 1539.92 1585.92 1650.96 1699.8 1737.32 1689.24 1598.64 1529.76 1454.32 1374.52 1310.92 1270.6 1202.92 1153.84 1123.84 1053.72 1035.4 1115.04 1176.72 1245.92 1347.6 1443.64 1508.6 1540.72 1559.24 1594.8 1659.04 1695.56 1732.96 1770.36 1815.08 1890.12 1933.92 1986.52 2033.72 2088.48 2087.8 2065.56 2028.2 1972.08 1923.24 1869.48 1816.36 1770.32 1729.12 1653.68 1551.6 1471.8 1410.24 1319.56 1246 1180.56 1145.44 1184.04 1198.92 1184.8 1165 1147.6 1112 1018.16 950.36 879.04 898.36 939.28 995.96 969.96 968.76 947.44 935.28 982.44 933.48 852.48 823.28 802.4 810.28 822.08 854.48 887.4 890.8 845.84 801.32 714.28 616.24 587.68 626.92 565.56 542.92 531.68 538.48 606.8 613.08 653.68 667.16 589.84 507.44 500.76 522.6957 -9999 -9999 -9999 -9999 -9999 -9999 -9999 -9999 -9999 -9999 -9999 -9999 -9999 -9999 -9999 -9999 -9999 -9999 -9999 -9999 -9999 -9999 -9999 -9999 -9999 -9999 -9999 -9999 -9999 -9999 -9999 -9999 -9999
-9999 -9999 -9999 -9999 -9999 -9999 -9999 -9999 -9999 -9999 -9999 -9999 -9999 -9999 -9999 -9999 -9999 -9999 -9999 -9999 -9999 -9999 -9999 -9999 -9999 -9999 -9999 -9999 967.0555 985.2 1007.8 1034.8 1079.08 1144.368 1224.8 1243.6 1207.75 1235.429 1275 1312.52 1350.32 1367.8 1398.6 1452.84 1485.76 1528.52 1573.28 1625.04 1670.92 1678.92 1597.36 1532.04 1451.72 1336.52 1260.28 1172.64 1089.16 1071.28 1021.32 1028.72 1073.68 1130.96 1209.28 1269.04 1316.36 1380.28 1409.76 1429.8 1473.8 1528.96 1616.28 1670.12 1718.28 1781.92 1846.52 1916.32 1971.16 2023.76 2059.6 2093.72 2080.88 2045.76 2027.04 1997.52 1926.64 1854.28 1772.36 1696.72 1634.32 1542.24 1461.56 1378.68 1301.84 1250.6 1253.44 1261 1258.44 1270.76 1303.44 1290.28 1240.48 1164.6 1077 990.52 949.36 955.92 1019.24 1033.6 1061.44 1103.32 1121.24 1061.76 1044.2 1059.28 1003.08 967.36 934.36 919.4 919.84 945.04 977 994.88 946.08 872 809.76 721.32 630.48 580.08 577.12 540.84 576.6 632.48 629.16 684.8 730.08 745 697.3125 619.2105 559.7083 496.92 494.64 498.2 -9999 -9999 -9999 -9999 -9999 -9999 -9999 -9999 -9999 -9999 -9999 -9999 -9999 -9999 -9999 -9999 -9999 -9999 -9999 -9999 -9999 -9999 -9999 -9999 -9999 -9999 -9999 -9999 -9999 -9999 -9999 -9999
-9999 -9999 -9999 -9999 -9999 -9999 -9999 -9999 -9999 -9999 -9999 -9999 -9999 -9999 -9999 -9999 -9999 -9999 -9999 -9999 -9999 -9999 -9999 -9999 -9999 -9999 -9999 -9999 941 957.9583 955.32 987.16 1050.16 1103.933 -9999 -9999 -9999 -9999 -9999 1245.083 1260.96 1293.32 1324.88 1337.4 1369.32 1432.72 1497.84 1564.68 1624.64 1621.04 1571.36 1562.8 1448.76 1353.16 1276.08 1191.72 1096.2 1028.6 992.32 1072.24 1135.36 1145 1180.92 1224.92 1280.76 1328.04 1364.44 1429.28 1499.24 1573 1639.64 1704.08 1754.84 1829.44 1903.44 1966.52 1998.32 2012.04 2046.04 2080.96 2094.28 2085.48 2050.64 1993.04 1905.96 1834.84 1735.52 1648.4 1542.36 1476.92 1415.68 1362.72 1347.84 1309.48 1336.12 1383.16 1393.52 1413.68 1395.2 1325.08 1274.92 1212.8 1132.52 1077.2 1067.72 1049.76 1096.16 1144.96 1182.36 1207.2 1221.72 1174.32 1168.28 1141.24 1098.16 1070.48 1054.12 1031.04 1015.12 1030.04 1010.96 975.88 926.56 885.48 817.4 729.2 643.72 572.68 550.24 579.04 674.36 714.88 754.6 784.4 755.6364 721 -9999 -9999 -9999 512.8333 491.25 -9999 -9999 -9999 -9999 -9999 -9999 -9999 -9999 -9999 -9999 -9999 -9999 -9999 -9999 -9999 -9999 -9999 -9999 -9999 -9999 -9999 -9999 -9999 -9999 -9999 -9999 -9999 -9999 -9999 -9999 -9999 -9999 -9999
