ncols         87
nrows         100
xllcorner     108.56185392851
yllcorner     27.750063881946
cellsize      0.00289434508
NODATA_value  -9999
-9999 -9999 -9999 -9999 -9999 -9999 -9999 -9999 -9999 -9999 -9999 -9999 -9999 -9999 -9999 -9999 -9999 -9999 -9999 -9999 -9999 -9999 -9999 -9999 -9999 -9999 -9999 -9999 -9999 -9999 -9999 -9999 -9999 -9999 -9999 -9999 -9999 -9999 -9999 -9999 -9999 -9999 -9999 -9999 -9999 -9999 -9999 -9999 -9999 -9999 -9999 -9999 -9999 -9999 994.8182 1006.733 -9999 -9999 -9999 -9999 -9999 -9999 -9999 -9999 -9999 -9999 -9999 -9999 -9999 -9999 -9999 -9999 -9999 -9999 -9999 -9999 -9999 -9999 -9999 -9999 -9999 -9999 -9999 -9999 -9999 -9999 -9999 
-9999 -9999 -9999 -9999 -9999 -9999 -9999 -9999 -9999 -9999 -9999 -9999 -9999 -9999 -9999 -9999 -9999 -9999 -9999 -9999 -9999 -9999 -9999 -9999 -9999 -9999 -9999 -9999 -9999 -9999 -9999 -9999 -9999 -9999 -9999 -9999 -9999 -9999 -9999 -9999 -9999 -9999 -9999 -9999 -9999 -9999 -9999 -9999 -9999 -9999 -9999 -9999 -9999 -9999 1013.48 1068.096 -9999 -9999 -9999 -9999 -9999 -9999 -9999 -9999 -9999 -9999 -9999 -9999 -9999 -9999 -9999 -9999 -9999 -9999 -9999 -9999 -9999 -9999 -9999 -9999 -9999 -9999 -9999 -9999 -9999 -9999 -9999 
-9999 -9999 -9999 -9999 -9999 -9999 -9999 -9999 -9999 -9999 -9999 -9999 -9999 -9999 -9999 -9999 -9999 -9999 -9999 -9999 -9999 -9999 -9999 -9999 -9999 -9999 -9999 -9999 -9999 -9999 -9999 -9999 -9999 -9999 -9999 -9999 -9999 -9999 -9999 -9999 -9999 -9999 -9999 -9999 -9999 -9999 -9999 -9999 -9999 -9999 -9999 -9999 -9999 876.9091 948.32 993.8556 -9999 -9999 -9999 -9999 -9999 -9999 -9999 -9999 -9999 -9999 -9999 -9999 -9999 -9999 -9999 -9999 -9999 -9999 -9999 -9999 -9999 -9999 -9999 -9999 -9999 -9999 -9999 -9999 -9999 -9999 -9999 
-9999 -9999 -9999 -9999 -9999 -9999 -9999 -9999 -9999 -9999 -9999 -9999 -9999 -9999 -9999 -9999 -9999 -9999 -9999 -9999 -9999 -9999 -9999 -9999 -9999 -9999 -9999 -9999 -9999 -9999 -9999 -9999 -9999 -9999 -9999 -9999 -9999 -9999 -9999 -9999 -9999 -9999 -9999 -9999 -9999 -9999 -9999 -9999 -9999 -9999 -9999 -9999 1028.385 926.2966 897.58 986.6176 -9999 -9999 -9999 -9999 -9999 -9999 -9999 -9999 -9999 -9999 -9999 -9999 -9999 -9999 -9999 -9999 -9999 -9999 -9999 -9999 -9999 -9999 -9999 -9999 -9999 -9999 -9999 -9999 -9999 -9999 -9999 
-9999 -9999 -9999 -9999 -9999 -9999 -9999 -9999 -9999 -9999 -9999 -9999 -9999 -9999 -9999 -9999 -9999 -9999 -9999 -9999 -9999 -9999 -9999 -9999 -9999 -9999 -9999 -9999 -9999 -9999 -9999 -9999 -9999 -9999 -9999 -9999 -9999 -9999 -9999 -9999 -9999 -9999 -9999 -9999 -9999 -9999 -9999 -9999 -9999 -9999 -9999 1189.167 1099.803 940.18 914.11 1004.556 -9999 -9999 -9999 -9999 -9999 -9999 -9999 -9999 -9999 -9999 -9999 -9999 -9999 -9999 -9999 -9999 -9999 -9999 -9999 -9999 -9999 -9999 -9999 -9999 -9999 -9999 -9999 -9999 -9999 -9999 -9999 
-9999 -9999 -9999 -9999 -9999 -9999 -9999 -9999 -9999 -9999 -9999 -9999 -9999 -9999 -9999 -9999 -9999 -9999 -9999 -9999 -9999 -9999 -9999 -9999 -9999 -9999 -9999 -9999 -9999 -9999 -9999 -9999 -9999 -9999 -9999 -9999 -9999 -9999 -9999 -9999 -9999 -9999 -9999 -9999 -9999 -9999 -9999 -9999 -9999 -9999 -9999 1204.949 1133.89 992.22 909.76 948.4857 982.25 -9999 -9999 -9999 -9999 -9999 -9999 -9999 -9999 -9999 -9999 -9999 -9999 -9999 -9999 -9999 -9999 -9999 -9999 -9999 -9999 -9999 -9999 -9999 -9999 -9999 -9999 -9999 -9999 -9999 -9999 
-9999 -9999 -9999 -9999 -9999 -9999 -9999 -9999 -9999 -9999 -9999 -9999 -9999 -9999 -9999 -9999 -9999 -9999 -9999 -9999 -9999 -9999 -9999 -9999 -9999 -9999 -9999 -9999 -9999 -9999 -9999 -9999 -9999 -9999 -9999 -9999 -9999 -9999 -9999 -9999 -9999 -9999 -9999 -9999 -9999 -9999 -9999 -9999 -9999 -9999 -9999 1169.5 1109.83 1007.21 955.91 920.19 946.3887 -9999 -9999 -9999 -9999 1115.79 1238.219 1311.343 1393.918 1354.673 1202.891 1140.213 1064.893 988.6875 -9999 -9999 -9999 -9999 -9999 -9999 -9999 -9999 -9999 -9999 -9999 -9999 -9999 -9999 -9999 -9999 -9999 
-9999 -9999 -9999 -9999 -9999 -9999 -9999 -9999 -9999 -9999 -9999 -9999 -9999 -9999 -9999 -9999 -9999 -9999 -9999 -9999 -9999 -9999 -9999 -9999 -9999 -9999 -9999 -9999 -9999 -9999 -9999 -9999 -9999 -9999 -9999 -9999 -9999 -9999 -9999 -9999 -9999 -9999 -9999 -9999 -9999 -9999 -9999 -9999 -9999 -9999 -9999 1207.5 1138.8 1044.79 994.71 972.5 939.69 966.3905 981.8096 1073.76 1116.882 1153.66 1201.14 1292.04 1401.7 1374.81 1287.48 1222.19 1132.77 1079.83 1055.313 986.6206 949.225 1015 1031.5 -9999 -9999 -9999 -9999 -9999 -9999 -9999 -9999 -9999 -9999 -9999 -9999 
-9999 -9999 -9999 -9999 -9999 -9999 -9999 -9999 -9999 -9999 -9999 -9999 -9999 -9999 -9999 -9999 -9999 -9999 -9999 -9999 -9999 -9999 -9999 -9999 -9999 -9999 -9999 -9999 -9999 -9999 -9999 -9999 -9999 -9999 -9999 -9999 -9999 -9999 -9999 -9999 -9999 -9999 -9999 -9999 -9999 -9999 -9999 -9999 -9999 -9999 -9999 1208.5 1153.008 1072.11 1041.19 1001.8 954.76 999.27 1093.54 1134.98 1185.27 1222.12 1280.18 1363.49 1421.88 1454.48 1388.54 1311.05 1242.02 1190.77 1083.41 1036.18 985.74 966.195 1069.258 1113.889 -9999 -9999 -9999 -9999 -9999 -9999 -9999 -9999 -9999 -9999 -9999 
-9999 -9999 -9999 -9999 -9999 -9999 -9999 -9999 -9999 -9999 -9999 -9999 -9999 -9999 -9999 -9999 -9999 -9999 -9999 -9999 -9999 -9999 -9999 -9999 -9999 -9999 -9999 -9999 -9999 -9999 -9999 -9999 -9999 -9999 -9999 -9999 -9999 -9999 -9999 -9999 -9999 -9999 -9999 -9999 -9999 -9999 -9999 -9999 -9999 -9999 -9999 -9999 1149.267 1143.93 1120.51 1036.51 996.09 1061.27 1094.55 1169.38 1266.5 1333.86 1412.76 1469.9 1502.52 1541.18 1483.01 1441.08 1344.57 1211.42 1116.78 1114.12 1063.28 975.17 1058.55 1077.287 -9999 -9999 -9999 -9999 -9999 -9999 -9999 -9999 -9999 -9999 -9999 
-9999 -9999 -9999 -9999 -9999 -9999 -9999 -9999 -9999 -9999 -9999 -9999 -9999 -9999 -9999 -9999 -9999 -9999 -9999 -9999 -9999 -9999 -9999 -9999 -9999 -9999 -9999 -9999 -9999 -9999 -9999 -9999 -9999 -9999 -9999 -9999 -9999 -9999 -9999 -9999 -9999 -9999 -9999 -9999 -9999 -9999 -9999 -9999 -9999 -9999 -9999 -9999 1246.19 1188.48 1136.22 1076.34 1041.1 1143.38 1169.32 1228.81 1313.96 1410.57 1523.2 1568.04 1568 1647.93 1573.93 1505.12 1416.84 1323.21 1224.55 1193.05 1111.83 994.89 974.19 957.7177 1036 -9999 -9999 -9999 -9999 -9999 -9999 -9999 -9999 -9999 -9999 
-9999 -9999 -9999 -9999 -9999 -9999 -9999 -9999 -9999 -9999 -9999 -9999 -9999 -9999 -9999 -9999 -9999 -9999 -9999 -9999 -9999 -9999 -9999 -9999 -9999 -9999 -9999 -9999 -9999 -9999 -9999 -9999 -9999 -9999 -9999 -9999 -9999 -9999 -9999 -9999 -9999 -9999 -9999 -9999 -9999 -9999 -9999 -9999 -9999 -9999 -9999 -9999 1273.069 1183.71 1212.82 1101.04 1018.11 1164.86 1249.17 1333.29 1381.27 1470.05 1558.06 1595.47 1631.08 1652.6 1567.19 1444.47 1367.37 1317.25 1310.1 1288.4 1192.95 1165.71 1135.44 982.96 1094.063 1186.056 -9999 -9999 -9999 -9999 -9999 -9999 -9999 -9999 -9999 
-9999 -9999 -9999 -9999 -9999 -9999 -9999 -9999 -9999 -9999 -9999 -9999 -9999 -9999 -9999 -9999 -9999 -9999 -9999 -9999 -9999 -9999 -9999 -9999 -9999 -9999 -9999 -9999 -9999 -9999 -9999 -9999 -9999 -9999 -9999 -9999 -9999 -9999 -9999 -9999 -9999 -9999 -9999 -9999 -9999 -9999 933.0906 966.9609 1032.5 -9999 1171.65 1229.414 1278.872 1272.02 1272.76 1122.97 1058.74 1203.46 1274.09 1324.1 1395.12 1540.35 1623.75 1639.32 1675.14 1712.01 1632.38 1488.71 1391.74 1282.18 1184.24 1163.76 1230.47 1231.15 1138 981.31 998.49 1132.255 -9999 -9999 -9999 -9999 -9999 -9999 -9999 -9999 -9999 
-9999 -9999 -9999 -9999 -9999 -9999 -9999 -9999 -9999 -9999 -9999 -9999 -9999 -9999 -9999 -9999 -9999 -9999 -9999 -9999 -9999 -9999 -9999 -9999 -9999 -9999 -9999 -9999 -9999 -9999 -9999 -9999 -9999 -9999 -9999 -9999 -9999 -9999 -9999 -9999 -9999 -9999 -9999 963.662 951.7576 944.91 1026.28 1025.1 1091.911 1185.841 1234.23 1263.243 1318.048 1360.389 1278.1 1180.52 1066.49 1054.1 1178.44 1401.66 1472.51 1529.13 1627.38 1680.16 1767.04 1762.2 1648.01 1562.49 1463.95 1346.89 1236.69 1094.2 1063.05 1037.38 956.21 929.64 1041 1050.047 958.25 -9999 -9999 -9999 -9999 -9999 -9999 -9999 -9999 
-9999 -9999 -9999 -9999 -9999 -9999 -9999 -9999 -9999 -9999 -9999 -9999 -9999 -9999 -9999 -9999 -9999 -9999 -9999 -9999 -9999 -9999 -9999 -9999 -9999 -9999 -9999 -9999 -9999 -9999 -9999 -9999 -9999 -9999 -9999 -9999 -9999 -9999 -9999 -9999 -9999 -9999 -9999 1013.81 1070.56 1080.28 1176.17 1116.12 1100.16 1175.49 1242.95 1318.13 1415.114 1450.32 1349.59 1334.61 1255.76 1191.21 1093.58 1275.01 1437.66 1560.44 1649.73 1691.19 1806.24 1780.56 1681.31 1569.7 1433.32 1314.55 1198.55 1099.36 1034.34 1051.66 1051.07 936.02 937.78 1046.945 -9999 -9999 -9999 -9999 -9999 -9999 -9999 -9999 -9999 
-9999 -9999 -9999 -9999 -9999 -9999 -9999 -9999 -9999 -9999 -9999 -9999 -9999 -9999 -9999 -9999 -9999 -9999 -9999 -9999 -9999 -9999 -9999 -9999 -9999 -9999 -9999 -9999 -9999 -9999 -9999 -9999 -9999 -9999 -9999 -9999 -9999 -9999 -9999 -9999 -9999 -9999 983.6667 1046.502 1149.88 1210 1278.8 1226.96 1217.11 1218.79 1297.33 1354.94 1448.72 1484.94 1440.06 1512.3 1417.4 1235.17 1090.18 1219.27 1309.04 1394.84 1526.15 1655.43 1776.01 1774.32 1670.39 1560.14 1432.41 1315.49 1211.86 1140.24 1091.04 1113.11 1043.81 975.46 895.73 1042.52 1092 -9999 -9999 -9999 -9999 -9999 -9999 -9999 -9999 
-9999 -9999 -9999 -9999 -9999 -9999 -9999 -9999 -9999 -9999 -9999 -9999 -9999 -9999 -9999 -9999 -9999 -9999 -9999 -9999 -9999 -9999 -9999 -9999 -9999 -9999 -9999 -9999 -9999 -9999 -9999 -9999 -9999 -9999 -9999 -9999 -9999 -9999 -9999 -9999 -9999 -9999 1088.357 1025.825 1033.15 1100.3 1190.03 1283.06 1307.59 1336.05 1375.18 1467.58 1556.14 1525 1524.27 1595.35 1452.01 1253.18 1117.27 1226.88 1396.81 1471.44 1579.61 1705.67 1792.06 1798.52 1709.3 1621.34 1509.43 1374.05 1297.78 1169.55 1031.52 980.95 939.99 892.91 883.17 996.76 1011.105 -9999 -9999 -9999 -9999 -9999 -9999 -9999 -9999 
-9999 -9999 -9999 -9999 -9999 -9999 -9999 -9999 -9999 -9999 -9999 -9999 -9999 -9999 -9999 -9999 -9999 -9999 -9999 -9999 -9999 -9999 -9999 -9999 -9999 -9999 -9999 -9999 -9999 -9999 1189.071 1170.066 1186.598 1192.988 1140.161 1124.841 -9999 -9999 -9999 -9999 1101.9 1160.877 1195.008 1164.47 1034.17 1112.01 1127.64 1124.95 1225.17 1326.5 1458.64 1571.71 1641 1591.46 1579.82 1587.86 1414.74 1238.01 1156.63 1311.64 1358.64 1500.44 1615.15 1757.26 1848.79 1867.23 1761.62 1633.71 1514.45 1401.09 1348.16 1226.12 1088.84 1003.62 952.17 999.33 933.27 883.45 860.5526 -9999 -9999 -9999 -9999 -9999 -9999 -9999 -9999 
-9999 -9999 -9999 -9999 -9999 -9999 -9999 -9999 -9999 -9999 -9999 -9999 -9999 -9999 -9999 -9999 -9999 -9999 -9999 -9999 -9999 -9999 -9999 -9999 -9999 -9999 -9999 -9999 -9999 1306.375 1254.974 1214.54 1301.22 1301.09 1205.11 1125.15 1130.045 1152.972 1122.035 1101.205 1159.948 1259.51 1305.74 1202.15 1034.43 1128.8 1243.52 1148.24 1291.89 1415.96 1440.34 1553.35 1664.24 1661.4 1644.94 1504.14 1346.03 1201.81 1190.24 1405.51 1529.31 1630.16 1686.13 1790.93 1896.75 1867.99 1755.37 1663.13 1565.16 1501.5 1412.75 1237.62 1106.11 1036.96 1083.55 1102.98 1000.12 884.78 876.3 957.5914 849.6072 -9999 -9999 -9999 -9999 -9999 -9999 
-9999 -9999 -9999 -9999 -9999 -9999 -9999 -9999 -9999 -9999 -9999 -9999 -9999 -9999 -9999 -9999 -9999 -9999 -9999 -9999 -9999 -9999 -9999 -9999 -9999 -9999 -9999 -9999 1408.665 1359.48 1321.92 1274.48 1351.3 1331.32 1197.96 1159.29 1211.12 1239.18 1194.09 1185.26 1252.74 1335.37 1330.1 1151.45 1076.01 1096 1119.58 1171.28 1282.07 1450.8 1525.72 1591.46 1716.08 1736.51 1684.85 1510.21 1348.81 1202.6 1194.32 1357.53 1467.43 1583.72 1760.98 1892.88 1988.05 1909.3 1821.68 1733.64 1636.79 1544.85 1416.54 1299.09 1174.32 1155.21 1095.95 1025.69 917.87 840.72 895.35 857.735 879.9524 -9999 -9999 -9999 -9999 -9999 -9999 
-9999 -9999 -9999 -9999 -9999 -9999 -9999 -9999 -9999 -9999 -9999 -9999 -9999 -9999 -9999 -9999 -9999 -9999 -9999 -9999 -9999 -9999 -9999 -9999 -9999 -9999 1358.333 1397.057 1447.866 1430.4 1353.75 1355.22 1418.1 1353.66 1240.27 1192.98 1266.14 1298.65 1242.19 1283.63 1331.28 1335.86 1178.2 1105.28 1161.77 1277.62 1215.16 1194.63 1265.07 1422.35 1597.95 1666.83 1750.61 1794.58 1679.96 1526.81 1424.67 1286.18 1212.42 1279.26 1467.35 1595.59 1723.2 1874 1938.46 1897.93 1812.55 1687.84 1600.42 1521.42 1440.12 1321.22 1155.34 1053.17 946.86 865.24 830.96 891.62 950.18 951.4853 -9999 -9999 -9999 -9999 -9999 -9999 -9999 
-9999 -9999 -9999 -9999 -9999 -9999 -9999 -9999 -9999 -9999 -9999 -9999 -9999 -9999 -9999 -9999 -9999 -9999 -9999 984.5 1017.184 1053.532 1134.475 1219.15 1325.3 1374.375 1343.15 1393.69 1447.31 1451.89 1416.5 1421.51 1478.08 1379.36 1318.34 1248.45 1296.49 1360.42 1331.89 1407.78 1348.1 1174 1124.35 1165.55 1268.6 1406.5 1337.25 1215.54 1286.68 1411.15 1499.27 1586.02 1716.45 1816.71 1730.25 1584.9 1446.49 1366.05 1236.81 1292.02 1443.47 1607.89 1752.25 1872.27 1904.12 1860.76 1779.7 1625.29 1482.24 1376.21 1327.66 1310.77 1202.96 1093.04 995.35 878.53 836.81 974.16 1050.901 -9999 -9999 -9999 -9999 -9999 -9999 -9999 -9999 
-9999 -9999 -9999 -9999 -9999 -9999 -9999 -9999 -9999 -9999 -9999 -9999 -9999 -9999 -9999 -9999 -9999 -9999 -9999 991.0978 1079.83 1155.88 1154.56 1257.43 1345.548 1336.4 1386.31 1440.41 1438.31 1502.42 1514.37 1505.46 1510.1 1438.84 1362.31 1283.32 1311.71 1398.16 1440.58 1328.43 1196.76 1181.88 1282.77 1249.96 1338.71 1500.32 1464.03 1340.59 1314.94 1346.84 1510.98 1643.02 1741.19 1834.63 1785.69 1668.67 1534.93 1356.18 1239.28 1357.8 1431.29 1549.04 1720.14 1846.9 1887.8 1817.37 1716.25 1602.78 1472.69 1300.8 1201.49 1191.61 1148.92 1019.65 946.6 870.76 829.4 936.54 994.975 -9999 -9999 -9999 -9999 -9999 -9999 -9999 -9999 
-9999 -9999 -9999 -9999 -9999 -9999 -9999 -9999 -9999 -9999 -9999 -9999 -9999 -9999 -9999 -9999 -9999 -9999 912.6666 1016.251 1144.02 1252.2 1276.68 1352.02 1368.81 1308.2 1346.1 1378.3 1406.85 1425.38 1449.68 1498.26 1566.24 1550.9 1460.74 1353.85 1358.08 1445.49 1376.92 1239.26 1334.31 1323.37 1404.84 1432.69 1348.63 1453.46 1565.57 1535.83 1490.21 1429.8 1487.66 1544.74 1651.88 1794.94 1818.29 1645.93 1486.54 1322.09 1284.12 1420.25 1586.63 1674.81 1758.88 1889.03 1873.05 1787.39 1661.28 1523.34 1376.9 1226.07 1108.94 1054.54 1033.34 968.73 853.98 810.03 929.4 1013.999 1022 -9999 -9999 -9999 -9999 -9999 -9999 -9999 -9999 
-9999 -9999 -9999 -9999 -9999 -9999 -9999 -9999 -9999 -9999 -9999 -9999 -9999 -9999 -9999 -9999 -9999 -9999 883.6411 1011.43 1130.01 1219.3 1313.69 1288.1 1245.58 1268.08 1304.84 1331.33 1392.18 1416.2 1482.54 1531.28 1566.71 1631.82 1569.13 1428.52 1442.88 1494.31 1319.09 1293.04 1452.27 1507.06 1575.79 1557.13 1540.9 1478.32 1620.43 1706.25 1580.99 1543.39 1616.27 1697.02 1716.11 1848.46 1747.48 1552.18 1404.55 1288.28 1391.31 1434.11 1528.63 1719.38 1843.78 1934.69 1872.17 1742.71 1636.43 1533.74 1383.27 1244.92 1096.79 989.24 915.27 875.28 840.89 796.72 826.54 922.4778 -9999 -9999 -9999 -9999 -9999 -9999 -9999 -9999 -9999 
-9999 -9999 -9999 -9999 -9999 -9999 -9999 -9999 -9999 -9999 -9999 -9999 -9999 -9999 -9999 -9999 -9999 837.2131 926.23 1029.49 1132.16 1219.51 1274.66 1208 1228.44 1266.62 1314.43 1413.88 1486.27 1501.55 1525.59 1585.41 1658.04 1686.82 1615.37 1517.97 1564.71 1561.24 1437.32 1284.15 1451.39 1631.21 1728.63 1703.81 1763.41 1683.75 1654.38 1765.7 1694.56 1712.63 1665.81 1778.88 1879.04 1836.3 1667.97 1496.65 1341.46 1352.02 1468.83 1615.51 1577.01 1648.88 1794.49 1916.69 1879.25 1748.78 1655.64 1518.69 1352.59 1230 1125.83 999.59 1011.09 1007.72 923.02 920.2 805.72 821.027 767 -9999 -9999 -9999 -9999 -9999 -9999 -9999 -9999 
-9999 -9999 -9999 -9999 -9999 -9999 -9999 -9999 -9999 -9999 -9999 -9999 -9999 -9999 760.8462 791.0208 831.2519 905.35 1014.27 1095.39 1168.3 1252.13 1229.5 1212.2 1291.06 1324.74 1375.77 1419.28 1474.73 1554.97 1614.26 1656.77 1699.11 1776.34 1737.94 1653.15 1674.99 1654.13 1463.93 1359.61 1396.24 1599.43 1811.85 1904.86 1909.2 1833.37 1770.45 1837.31 1841.62 1839.52 1780.87 1836.08 1914.71 1823.54 1649.51 1508.49 1365.6 1426.08 1537.02 1664.54 1756.96 1759.99 1855.38 1956.97 1887.19 1785.8 1662.68 1515.55 1403.56 1276.6 1104.75 1113.36 1149.31 1042.31 954.93 911.8 853.13 768.07 776.054 -9999 -9999 -9999 -9999 -9999 -9999 -9999 -9999 
-9999 -9999 -9999 -9999 -9999 -9999 -9999 -9999 -9999 -9999 -9999 -9999 -9999 751.6805 789.2462 914.51 980.79 1022.43 1059.12 1113.25 1199.98 1253.89 1202.84 1224.02 1310.8 1354.11 1400.47 1443.26 1509.68 1572.12 1647.87 1738.22 1801.19 1839.24 1876.2 1809.98 1769.86 1719.45 1586.14 1481.8 1454.81 1638.82 1784.14 1908.22 2002.38 1944.84 1861.94 1874.84 1955.16 1976.25 1882.57 1883.01 1840.96 1705.73 1581.13 1492.62 1420.06 1526.16 1603.42 1646.22 1763.28 1897.18 1992.41 1999.79 1900.32 1787.18 1633.91 1489.49 1364.49 1236.1 1150.44 1246.11 1123.44 1019.16 1018.22 930.14 886.94 792.46 782.66 861.8403 -9999 -9999 -9999 -9999 -9999 -9999 -9999 
-9999 -9999 -9999 -9999 -9999 -9999 -9999 -9999 -9999 -9999 -9999 -9999 731.7576 805.36 881.67 964.87 1062.72 1118.55 1156.71 1139.97 1123.75 1156.86 1179.37 1231.12 1328.75 1381.33 1389.98 1428.98 1491.46 1566.4 1645.22 1724.61 1804.31 1894.83 1975.78 1912.7 1804.17 1761.07 1769.74 1653.88 1526.42 1601.58 1824.78 1943.96 1983.02 2010.35 2001.25 1976.45 2013.42 2054.77 1972.72 1858.42 1774.82 1683.4 1650.42 1577.38 1484.4 1593.31 1767.22 1832.4 1832.69 1952.71 2018.04 1982.79 1944.28 1820.42 1666.17 1523.38 1364.4 1255.14 1310.65 1315.76 1231.61 1183.29 1114.92 1077.67 1000.26 888.6 771.57 795.2775 835.4166 -9999 -9999 -9999 -9999 -9999 -9999 
-9999 -9999 -9999 -9999 -9999 -9999 -9999 -9999 -9999 -9999 -9999 -9999 748 736.0115 827.06 949 1030.43 1049.5 1078.09 1009.35 1067.68 1172.3 1134.71 1239.3 1336.24 1438.99 1469.34 1499.98 1525.04 1575.32 1641.95 1676.86 1710.67 1742.81 1846.74 1914.7 1851.67 1787.29 1844.17 1811.9 1690.82 1647.52 1806.26 1923.75 1999.44 2081.23 2129.34 2130.26 2116.46 2100.84 2024.9 1954.51 1871.64 1758.49 1645.62 1508.26 1562.75 1698.81 1817.32 1936.06 1970.81 1961.1 1921.2 1868.25 1879.87 1780.82 1692.76 1565.9 1429.27 1412.64 1376.35 1229.96 1151.43 1121.38 1146.68 1107.48 1040.04 936.23 825.37 753.93 828.1534 -9999 -9999 -9999 -9999 -9999 -9999 
-9999 -9999 -9999 -9999 -9999 1283.05 1241.273 1055.633 1001.753 959.6194 929.125 787.5 752.1128 744.24 817.34 896.16 920.61 986.9 991.31 976.38 1080.79 1130.27 1070.8 1198.42 1317.61 1408.17 1501.67 1502.5 1460.91 1480.46 1514.89 1512.95 1567.12 1664.48 1752.3 1879.98 1919.95 1827.8 1893.7 1927.28 1818.05 1729.01 1832.67 1909.07 2005.93 2109.61 2219.57 2187.72 2114.07 2026.73 1914.88 1830.9 1744.98 1605.32 1553.97 1614.42 1693.01 1804.18 1901.41 1971.04 1961.01 1904.08 1777.72 1729.34 1737.35 1619.48 1610.34 1530.2 1478.79 1494.16 1339.32 1192.07 1089 1004.72 973.53 982.84 953.94 863.49 761.3 802.83 912.3 972.8334 -9999 -9999 -9999 -9999 -9999 
-9999 -9999 -9999 -9999 -9999 1302.033 1225.74 1091.38 968.58 886.56 832.7542 804.7142 834.87 805.12 789.07 855.19 867.71 888.17 916.61 998.84 1081.83 1042.22 1023.32 1141.11 1168.8 1177.21 1216.64 1214.51 1227.64 1277.94 1303.78 1372.59 1478.76 1581.46 1708.13 1832.85 1938.89 1881.38 1926.67 1959.65 1824.45 1815.84 1947.53 1951.75 2009.66 2081.62 2149.89 2055.96 2000.7 1895.35 1789.87 1700.46 1599.13 1599.67 1702.03 1753.48 1824.11 1927.97 1974.3 1925 1843.83 1801.33 1736.01 1612.96 1588.59 1484.49 1459.51 1393.5 1309.86 1355.12 1363.01 1200.14 1076.08 976.42 869.1 827.05 869.9 827.96 740.08 845.97 908.6476 -9999 -9999 -9999 -9999 -9999 -9999 
-9999 -9999 -9999 -9999 1391.192 1307.85 1194.98 1073.54 957.8 937.91 919.07 918.29 971.62 947.8 803.1 759.91 798.87 831.81 859.02 930.91 956.94 993.31 972.47 1018.29 1064.31 1094.45 1057.87 1112.78 1171.09 1257.14 1316.26 1355.92 1417.35 1533.43 1675.57 1800.48 1920.16 1945.47 1976.9 1982.77 1862.47 1825.5 1925.27 2019.28 2090.41 2138.72 2125.59 1969.93 1833.03 1744.93 1669.86 1655.3 1714.19 1705.91 1807.45 1928.27 1991.63 2011.97 1958.12 1837.76 1761.02 1677.67 1650.81 1573.29 1423.41 1331.48 1287.26 1261.61 1158.11 1173.06 1274.16 1276.8 1223.72 1070.38 965.24 896.62 776.24 737.83 763.55 834.58 862.5641 -9999 -9999 -9999 -9999 -9999 -9999 
-9999 -9999 -9999 1421 1362.912 1203.52 1090.21 987.43 919.74 989.83 1025.22 1036.09 1113.18 1077.25 939.4 830.01 779.24 809.36 847.5 869.47 880.01 904.45 921.09 977.44 1009.25 1007.58 1091.66 1162.05 1239.75 1315.59 1415.99 1463.48 1451.44 1602.64 1714.67 1768.8 1879.21 1991.33 2072.04 2021.23 1985.98 1949.06 1868.42 1948.73 2055.18 2143.75 2097.48 1948.14 1809.05 1784.82 1798.77 1852.79 1862.16 1822.35 1834.65 1997.33 2111.88 2031.46 1912.37 1802.55 1643.94 1547.14 1499.93 1423 1379.36 1311.53 1154.85 1125.81 1029.32 1018.81 1100.08 1204.76 1318.43 1180.9 1110.02 995.92 845.39 755.81 747.6667 817.2353 924 -9999 -9999 -9999 -9999 -9999 -9999 
-9999 -9999 -9999 1424.708 1332.07 1137.83 1070.52 988.65 1006.07 1111.13 1090.04 1134.36 1220.52 1112.58 984.39 852.57 808.18 868.61 940.97 1023.19 1019.34 1009.87 1003.45 1098.51 1096.15 1073.06 1162.91 1230.13 1273.67 1355.07 1467.49 1536.44 1535.61 1632.87 1760.1 1836.04 1929.07 2037.54 2126.19 2120.04 2043.62 1959.31 1912.71 1917.28 2054.75 2169.67 2090.03 1952.37 1873.92 1918.85 1947.64 2030.66 2000.73 1962.38 2013.94 2077.1 2111.99 2031.33 1910.57 1769.52 1616.02 1503.17 1396.23 1281.36 1209.23 1151.95 1091.14 1011.04 940.54 916.29 953.85 1080.48 1272.49 1256.79 1144.65 1046.57 917.66 813.34 730.1 739.2439 837.838 -9999 -9999 -9999 -9999 -9999 -9999 
-9999 -9999 1353 1427.4 1306.88 1170.47 1082.25 1068.97 1102.46 1247.46 1231.65 1259.87 1239.76 1076.02 949.52 852.64 844.71 951.7 993.45 1091.25 1166.37 1163.76 1133.75 1182.95 1181.36 1157.19 1226.09 1308.35 1348.98 1422.6 1524.27 1603.34 1659.14 1693.84 1822.5 1889.81 1919.19 1985.85 2054.76 2121.14 2071.42 2060.44 2059.43 1951.53 2025.96 2134 2194.09 2071.55 1964.88 2012.51 2024.46 2163.52 2112.2 2078.74 1992.92 1949.14 1997.57 2032.8 1934.86 1813.08 1703.9 1621.02 1495.46 1418.86 1289.95 1115.52 987.75 910.83 880.49 840.13 836.92 975.15 1152.21 1122.62 1071.2 959.56 878.09 788.36 709.33 744.75 792.6133 -9999 -9999 -9999 -9999 -9999 -9999 
-9999 -9999 1449.633 1454.849 1322.9 1214.28 1125.91 1160.7 1199.18 1348.59 1355.58 1292.2 1130.4 979.36 879.29 835.95 883.4 1003.91 1085.01 1134.47 1202.44 1267.99 1279.11 1278.96 1304.53 1277.94 1313.77 1367.77 1442.03 1486.43 1574.08 1678.19 1766.42 1755.55 1755.07 1720.55 1756.29 1837.21 1975.76 2118.84 2201.06 2187.21 2156.18 2051.87 1983.13 2076.1 2113.02 2160.87 2194.7 2200.42 2245.41 2166.22 2019.95 1920.87 1850.56 1801.09 1876.89 1924.67 1950.11 1890.17 1813.33 1710.6 1600.47 1474.94 1307.67 1144.66 1036.27 999.11 991.64 870.93 817.23 831.66 945.27 987.38 977.72 933.15 804.85 718.46 737.08 775.44 787.0834 -9999 -9999 -9999 -9999 -9999 -9999 
-9999 -9999 -9999 1522.51 1436.77 1299.6 1241.88 1298.09 1312.35 1272.03 1192.04 1144.92 985.27 875.54 824.38 866.4 884.65 924.78 1030.48 1128.53 1220.12 1300.59 1358.64 1389.41 1429.61 1420.5 1415.76 1464.72 1525.27 1570.81 1613.97 1664.6 1696.88 1582.32 1545.99 1519.36 1630.58 1706.89 1836.08 1992.58 2054.79 2162.87 2251.8 2203.34 2054.48 2038.47 2124.68 2217.2 2358.04 2317.72 2185.03 2058.74 1916.05 1804.95 1760.75 1696.75 1746.36 1763.2 1850.08 1924.49 1854.59 1731.05 1572.67 1421.07 1267.59 1177.74 1172.36 1153.92 1085.02 956.14 883.33 800.66 816.9 823.23 823.16 817.37 783.62 705.59 701.5554 705.3065 675.3167 -9999 -9999 -9999 -9999 -9999 -9999 
-9999 -9999 1490.212 1493.774 1443.38 1411.59 1413.25 1407.32 1398.73 1306.94 1199.27 1042.23 934.49 953.49 914.32 914.28 985.19 999.18 915.9 958.66 1082.95 1167.45 1225.39 1324.71 1411.48 1396.32 1341.24 1408.35 1462 1426.62 1395.05 1420.07 1453.28 1383.52 1344.96 1309.93 1403.09 1543.57 1669.72 1760.64 1894.85 2032.53 2135.64 2235.15 2220.06 2180.95 2232.91 2333 2254.79 2155.22 2040.08 1928.38 1845.14 1738.45 1658.52 1610.76 1580.89 1622.96 1735.93 1850.29 1848.8 1729.85 1585.69 1429.28 1306.62 1292.39 1264.6 1293.31 1178.78 1073.84 968.84 871.22 795.29 777.33 760.48 724.88 719.25 701.35 753.7423 741.75 680.99 753.6327 802.5294 -9999 -9999 -9999 -9999 
-9999 -9999 1466.106 1462.63 1356.76 1262.72 1281.41 1343.3 1362.51 1233.94 1131.12 1022.39 1056.68 1058.25 991.44 981.44 957.93 1083.09 1026.48 1014.62 959.57 954.54 1042.05 1155.17 1129.75 1097.76 1112.31 1149.5 1209.53 1192.76 1168.91 1182.25 1230.88 1224 1265.18 1405.04 1435.38 1461.36 1538.96 1617.38 1767.32 1897.16 2082.93 2298.03 2369.41 2385.55 2365.02 2245.81 2167.27 2052.65 1998.59 1898.52 1785.82 1695.48 1633.88 1521.28 1453.81 1549.77 1716.86 1719.61 1686.54 1687.39 1594.46 1468.48 1448.27 1471.94 1446.81 1400.64 1271.67 1195.03 1100.86 1027.02 972.11 995.77 922.32 850.22 828.19 771.55 672.32 679.26 667.01 743.55 824.7927 -9999 -9999 -9999 -9999 
-9999 1470.8 1504.907 1472.24 1342.09 1259.74 1196.19 1251.53 1216.18 1249.31 1190.19 1142.62 1196.56 1151.57 1077.53 1088.44 997.38 1038.66 1112.19 1139.27 1118.55 1071.65 990.44 995.02 1025.7 1080.04 1097.58 1094.81 1118.36 1157.33 1241.56 1279.56 1231.62 1278.01 1415.9 1592.17 1676.05 1651.67 1756.17 1769.47 1777.01 1940.31 2147.89 2289.13 2390.31 2436.06 2300.62 2129.46 2027.59 1942.29 1843.01 1864.06 1783.32 1692.12 1580.72 1487.28 1382.41 1471.87 1530.19 1577.54 1462.55 1473.74 1516.38 1554.84 1541.59 1556.99 1558.59 1520.15 1430.64 1326.91 1260.68 1194.93 1130.81 1120.1 1094.37 1067.94 984.35 818.73 673.94 682.67 694.8485 758.593 770.5717 -9999 -9999 -9999 -9999 
-9999 1468.049 1470.96 1407.28 1353.38 1331.37 1227.12 1143.71 1107.95 1097.69 1111.33 1142.33 1140.03 1074.35 1080.9 1049.32 1008.71 1091.46 1166.46 1191.41 1240.59 1228.98 1161.5 1117.87 1149.51 1197.38 1264.13 1243.21 1264.41 1310.83 1395.77 1527.67 1510.43 1461.81 1486.84 1663.83 1848.04 1834.74 1897.37 1968.31 1981.87 2080.19 2216.18 2319.89 2440.21 2425.16 2240.35 2094.22 1970.29 1857.1 1725.76 1771.63 1759.34 1674.68 1602.78 1500.23 1366.36 1256.18 1319.46 1406.72 1305.94 1290.78 1350.2 1342.48 1305.79 1419.8 1416.39 1437.08 1409.56 1284.01 1186.83 1107.38 1028.26 958.95 961.9 955.46 976.59 898.16 774.73 735.24 710.2053 658.1594 645.3414 686.4583 783.7262 -9999 -9999 
1479.75 1496.211 1432.28 1310.46 1218.65 1192.84 1271.6 1237.04 1157.99 1110.38 1040.35 1013.56 1011.89 1025.98 1096.21 1057.84 1087.31 1170.94 1231.81 1245.94 1291.72 1340.53 1324.56 1240.28 1246.01 1270.26 1335.97 1351.03 1432.3 1477.94 1543.44 1645.23 1743.9 1711.83 1661.15 1743.63 1890.93 2016.89 2066.09 2075.88 2052.7 2071.46 2061.81 2148.08 2285.18 2375.89 2188.13 2027.74 1907.9 1784.64 1622.04 1665.15 1745.48 1686.33 1601.48 1506.36 1372.99 1246.13 1153.34 1152.41 1108.09 1204.95 1218.89 1114.22 1139.58 1229.17 1205.58 1201.64 1271.84 1368.86 1340.37 1263.23 1178.74 1071.02 945.66 882.55 815.94 841.28 824.55 777.96 772.87 783.09 759.27 669.42 696.0513 643.3 -9999 
1339 1402.001 1353.33 1271.22 1216.54 1166.06 1157.26 1141.93 1088.95 1099.36 1038.33 1042.99 1066.8 1072.54 1110.74 1138.1 1174.39 1231.86 1300.37 1330.73 1341.94 1412.1 1459.61 1395.41 1362.24 1363.22 1397.69 1448.65 1543.3 1619.62 1672.47 1781.44 1851.56 1918.66 1912.24 1923.19 1973.04 1983.4 1968.15 1900.45 1862.66 1868.15 1899.87 2028.64 2185.58 2295.23 2134.73 1993.71 1871.5 1776.1 1603.37 1512.79 1617.02 1627.55 1569.59 1522.14 1402.47 1266.04 1147.01 996.21 942.16 1119.4 1187.27 1017.39 968.1 1091.21 1039.3 1005.17 1037.49 1169.03 1312.37 1394.33 1297.99 1162.77 1031.55 894.76 813.33 768.67 734.8 722.17 686.68 720.81 677.16 647.21 638.44 651.4967 -9999 
-9999 1382.977 1295.92 1206.35 1156.87 1140.68 1106.81 1096.65 1126.72 1139.34 1051.34 1089.09 1126.29 1141.88 1159.74 1159.35 1237.59 1326.56 1376.16 1407.05 1411.77 1466.95 1528.01 1524.31 1485.36 1498.27 1463.31 1499.86 1608.1 1691.24 1761.16 1861.56 1928.24 1903.27 1882.97 1847.02 1852.63 1790.32 1807.52 1730.96 1665.53 1684.39 1818.4 1972.87 2134.88 2244.21 2164.32 2039.88 1939.56 1823.69 1628.37 1434.42 1396.85 1491.46 1502.33 1476.93 1401.77 1251.75 1108.97 972.87 877.06 1058.1 1210.03 1083.23 932.78 882.23 959.95 880.92 902.36 1013.81 1167.14 1366.85 1370.46 1191.7 1064.11 974.2 921.78 905.89 860.31 825.43 784.08 691.99 624.7 695.26 748.1613 810.6967 -9999 
-9999 1349.75 1315.856 1235.13 1171.56 1146.07 1170.63 1218.04 1218.73 1146.46 1082.45 1172.27 1211.06 1168.3 1242.42 1211.32 1226.34 1285.24 1310.47 1346.71 1404.53 1482.98 1560.27 1627.32 1595.94 1601.61 1613.15 1575.91 1617.11 1698.51 1762.81 1870.32 1809.31 1764.26 1686.8 1637.59 1664.91 1624.88 1565.71 1535.97 1560.09 1712.16 1906.75 2052.25 2199.78 2107.68 2005.09 1975.56 1935.81 1822.66 1628.61 1465.96 1265.8 1267.13 1351.33 1333.54 1310.27 1235.89 1133.75 983.55 850.6 965.34 1140.7 1150.7 1036.26 878.63 815.51 861.57 782.7 926.78 1120.71 1297.42 1389.43 1271.26 1171.45 1092.99 1041.17 1029.16 951.33 890.31 763.29 636.16 667.81 703 793.8168 -9999 -9999 
-9999 -9999 1350.112 1256.44 1168.39 1249.1 1248.55 1289.77 1322.96 1167.94 1084.88 1169.29 1232.93 1231.26 1273.52 1244.09 1290.72 1305.24 1340.21 1358.88 1426.03 1513.99 1593.71 1665.13 1714.89 1721.8 1756.36 1602.6 1558.32 1604.22 1730.8 1755.79 1667.34 1599.66 1542.21 1449.06 1403 1420.68 1487.15 1595.09 1696.22 1793.24 1915.22 2064.69 2115.19 2022.3 1901.58 1873.16 1890.44 1756.71 1582.01 1390.24 1188.13 1064.03 1137.35 1154.04 1189.43 1143.13 1088.29 987.4 840.62 852.05 1027.97 1038.39 961.75 903.92 827.21 766.92 757.86 889.57 1037.54 1154.16 1227.59 1306.17 1273.24 1158.06 1066.61 1006.86 889.88 739.24 648.43 638.7 727.8516 725.8889 -9999 -9999 -9999 
-9999 1331 1348.619 1283.63 1268.78 1372.94 1395.29 1380.28 1338.46 1201.01 1105.75 1156.03 1230.68 1289.98 1278.83 1288.98 1360.6 1413.49 1453.29 1471.81 1469.48 1517.71 1594 1683.98 1751.43 1693.22 1575.23 1461.19 1434.22 1547.94 1581.3 1520.99 1482.17 1400.23 1334.59 1294.82 1392.21 1497.05 1648.77 1693.87 1833.37 1962.93 2037.32 2059.61 2029.37 1961.54 1827.39 1738.13 1772.72 1725.42 1545.63 1329.39 1173.39 1030.18 947.05 944.91 932.01 975.3 932.6 864.52 822.38 811.97 962.28 904.94 877.59 780.7 747.29 707.13 712.44 846.82 997.58 979.98 1052.37 1092.97 1235.72 1182.05 1072.22 923.97 822.43 780.66 666.78 661.13 702.8273 -9999 -9999 -9999 -9999 
-9999 1316 1384.485 1341.03 1351.34 1440.71 1463.85 1427.2 1363.78 1286.24 1172.87 1123.32 1185.9 1289.9 1327.47 1363.27 1413.83 1495.52 1536.77 1542.24 1556.09 1590.8 1658.18 1699.08 1639.93 1524.2 1405.09 1373.23 1337.97 1368.93 1373.37 1298.2 1262.09 1273.05 1319.58 1345.59 1481.32 1665.69 1760.66 1861.48 1948.51 2100.42 2149.33 2036.13 1937.54 1856.56 1744.59 1578.74 1628.35 1672.41 1547.87 1436.4 1331.36 1158.62 1070.73 955.82 935.46 851.57 847.8 904.53 847.39 793.54 853.95 795.76 736.02 715.06 760.72 779.33 691.32 756.88 850.48 824.44 878.49 931.49 1121.01 1137.63 1058.75 925.12 786.3 698.16 634.68 629.99 711.5459 -9999 -9999 -9999 -9999 
-9999 -9999 1390.103 1371.51 1392.646 1436.649 1473.917 1459.923 1448.156 1422.76 1289.83 1139.16 1201.2 1317.2 1386.3 1410.54 1460.04 1549.66 1590.98 1617.95 1643.57 1688.75 1677.39 1569.58 1431.32 1374.85 1288.91 1261.89 1176.01 1166.97 1193.22 1245.74 1342.63 1456.67 1544.01 1535.55 1602.7 1679.06 1778.21 1908.12 2028.69 2106.15 2051.44 1899.12 1793.27 1674.4 1639.29 1481.37 1438.49 1466.37 1337.88 1276.66 1277.26 1200.51 1090.67 1090.25 1090.2 992.7 1007.86 1062.36 963.36 864.04 757.31 772.75 798.26 846.8 915.88 912.13 795.21 710.11 699.11 688.32 721.68 817.15 964.48 998.93 1014.05 924.52 751.95 618.53 635.94 667.6565 723.0238 -9999 -9999 -9999 -9999 
-9999 -9999 1402.419 1404.44 1422 -9999 -9999 -9999 1491 1438.508 1308.86 1184.98 1231.09 1342.63 1444.27 1501.33 1525.18 1551.46 1631.05 1689.98 1706.94 1629.16 1472.22 1384.66 1292.67 1193.36 1130.96 1115.18 1142.26 1277.29 1365.18 1465.79 1556.38 1627.63 1733.4 1754.63 1778.53 1862.33 1875.4 1922.34 1981.68 2057.65 2007.38 1826.98 1633.85 1536.72 1457.67 1391.38 1272.32 1219.54 1118.15 1084.02 1074.32 1049.61 1021.99 1022.59 1160.06 1222.09 1212.85 1200.25 1065.44 936.03 844.59 837.35 882.17 951.35 1049.75 1071.24 967.05 900.68 785.41 722.03 684.29 683.83 759.53 824.91 783.15 822.64 773.09 634.13 629.2535 666.4423 -9999 -9999 -9999 -9999 -9999 
-9999 -9999 -9999 -9999 -9999 -9999 -9999 -9999 -9999 1473.583 1404.96 1317.59 1271.04 1366.73 1468.05 1560.57 1623.03 1622.84 1627.29 1585.87 1594.15 1513.1 1329.11 1193.4 1108.21 1064.35 1189.83 1311.6 1397.27 1515.59 1635.28 1727.94 1789.86 1840.32 1894.87 1967.65 1979.06 2028.08 1996.71 1931.46 1998.57 2098.71 2004.87 1762.07 1562.16 1419.29 1328.06 1290.44 1228.15 1207.66 1297.25 1298.14 1290.4 1225.55 1131.77 988.63 1005.65 1224.29 1308.06 1277.55 1147.26 1048.29 997.19 964.47 953.88 1001.71 1154.38 1231.22 1116.98 951.92 835.93 913.11 820.16 697.33 650.3 664.75 642.09 700.46 841.78 761.05 640.53 625.972 649.7619 -9999 -9999 -9999 -9999 
-9999 -9999 -9999 -9999 -9999 -9999 -9999 -9999 -9999 -9999 1409 1377.4 1343.28 1365.31 1462.78 1559.55 1619.45 1613.01 1522.45 1445.59 1490.38 1391.3 1265.2 1113.34 1032.63 1127.03 1255.67 1350.45 1446.97 1569.68 1654.32 1726.85 1760.78 1776.23 1837.07 1918.37 1944.87 1977.17 2064.23 2067.05 2079.89 2127.72 2022.99 1845.16 1685.56 1571.53 1544.26 1483.03 1334.15 1415.94 1509.97 1507.18 1436.57 1242.83 1062.06 988.35 944.32 1057.45 1118.2 1138.84 1219.09 1240.55 1193.78 1144.3 1076.28 1119.51 1230.24 1316.32 1168.29 1064.5 1020.81 1014.04 860.13 780.13 847.47 813.11 655.52 705.12 832.94 781.87 656.06 597.53 651.2928 -9999 -9999 -9999 -9999 
-9999 -9999 -9999 -9999 -9999 -9999 -9999 -9999 -9999 -9999 -9999 1239.488 1268.05 1348.44 1433.47 1523.69 1572.34 1558.6 1496.29 1307.76 1283.12 1314.34 1224.42 1069.75 1067.57 1247.56 1379.53 1424.36 1422.82 1500.61 1574.83 1670.43 1786.2 1885.9 1885.84 1923.87 1975.45 2056.01 2163.94 2258.1 2309.41 2327.62 2287.99 2138.16 1982.75 1858.96 1727.99 1526.24 1454.37 1559.92 1577.78 1378.06 1259.71 1167.59 1151.82 1174.99 1036.21 924.85 913.7 927.41 1041.79 1213.89 1317.03 1317.36 1305.26 1288.4 1395.64 1431.51 1320.02 1232.01 1212.91 1088.58 971.08 1006.38 1003.76 873.92 776.5 668.43 732.09 717.96 633.7 621.3 629.0817 -9999 -9999 -9999 -9999 
-9999 -9999 -9999 -9999 -9999 -9999 -9999 -9999 -9999 -9999 1173.956 1176.847 1252.17 1333.29 1415.77 1504.67 1524.24 1420.44 1378.5 1216.07 1095.01 1148.48 1155.04 1026.28 1088.64 1232.35 1298.5 1420.69 1494.08 1562.44 1647.2 1712.06 1791.27 1846.31 1935.24 2045.92 2124.25 2217.72 2351.56 2433.61 2497.23 2484.35 2358.82 2245.34 2137.13 2006.25 1867.97 1708.9 1682.75 1714.73 1543.52 1339.53 1329.92 1273.58 1273.76 1322.38 1175.15 1051.92 998.47 946.3 891.86 1005.74 1169.2 1339 1429.71 1540.95 1559.53 1590.55 1513.56 1439.56 1362.31 1255.58 1181.59 1123.06 1019.33 879.24 776.61 640.5 612.4 603.01 600.7 595.5317 589.5942 -9999 -9999 -9999 -9999 
-9999 -9999 -9999 -9999 -9999 -9999 -9999 -9999 -9999 -9999 1106.173 1141.69 1227.81 1304.22 1373.3 1427.55 1432.95 1366.17 1238 1096.71 1003.3 1025.67 1036.5 988.16 1052.62 1107.89 1186.04 1265.96 1326.17 1458.01 1480.97 1525.77 1573.49 1634.62 1766.45 1931.01 2075.2 2251.38 2365.15 2454.77 2478.84 2320.83 2246.98 2207.72 2128.01 1986.98 1958.13 1986.56 1929.12 1744.12 1546.21 1479.43 1474.43 1419.48 1434.2 1472.8 1400.41 1262.58 1224.31 1106 913.66 868.71 1039.11 1112.46 1290.68 1410.13 1551.73 1618.1 1529.09 1424.65 1275.94 1175.4 1103.19 1078.01 967.65 894.65 824.13 728.39 664.57 606.03 642.41 643.1306 -9999 -9999 -9999 -9999 -9999 
-9999 -9999 -9999 -9999 -9999 -9999 -9999 -9999 -9999 -9999 1051.71 1111.24 1150.2 1205.31 1248.42 1315.18 1363.35 1289.98 1225.58 1057.45 950.24 944.84 987.59 1056.82 1165.67 1267.66 1346.28 1369.22 1413.79 1458.82 1505.03 1549.71 1589.62 1657.6 1792.38 1890.77 2004.54 2138.2 2290.66 2469.84 2423.77 2237.42 2135.95 2037.59 2009.62 1904.01 1871.76 2033.86 1998.93 1819.13 1730.47 1685.26 1596.93 1552.98 1600.72 1606.8 1481.39 1373.36 1285.85 1149.07 1018.76 876.38 880.93 1003.37 1111.46 1233.73 1393.49 1415.43 1401.84 1265.59 1151.4 1001.82 949.94 913.91 897.09 811.26 723.69 641.67 585.79 628.1436 659.2636 655.1 -9999 -9999 -9999 -9999 -9999 
-9999 -9999 -9999 -9999 -9999 -9999 -9999 -9999 -9999 -9999 1044.833 1066.508 1106.84 1157.83 1214.33 1283.68 1332.81 1262.42 1212.55 1084.4 933.67 960 1061.34 1199.07 1233.44 1236.15 1305.8 1400.7 1529.41 1650.48 1736.62 1793.23 1895.23 1956.03 2047.56 2106.46 2125.91 2236.9 2406.97 2482.77 2334.73 2140.08 2017.44 1859.16 1828.88 1786.82 1799.35 1976.26 1995.07 1945.46 1902.94 1849.57 1747.41 1729.08 1722.01 1591.77 1520.45 1446.03 1287.44 1093.79 995.04 940.56 848.54 877.72 1036.2 1136.39 1181.77 1195.12 1274.88 1117.98 996.32 866.39 843.12 845.8 738.54 695.56 614.55 574.88 673.7767 696.3833 -9999 -9999 -9999 -9999 -9999 -9999 -9999 
-9999 -9999 -9999 -9999 -9999 -9999 -9999 -9999 -9999 -9999 -9999 -9999 1105.8 1110.359 1170.72 1226.04 1231.95 1211.45 1089.64 937.83 891.41 998.21 1113.33 1222.13 1324.16 1352.59 1317.9 1465.53 1582.56 1690.18 1821.01 1916.82 1975.43 2058.53 2158.25 2283.21 2307.31 2340.2 2405.24 2402.66 2243.33 2121.04 1994.04 1816.2 1716.74 1686.35 1841.88 1983.96 1878.79 1824.48 1802.44 1809.6 1914.03 1886.93 1779.88 1706.16 1559 1390.15 1218.06 1110.83 1165.39 1090.45 947.91 809.98 852.83 934.91 985.04 1011.53 1104.21 1116.4 973.26 814.13 728.63 750.78 663.8 568.08 583.68 669.4989 697.4615 -9999 -9999 -9999 -9999 -9999 -9999 -9999 -9999 
-9999 -9999 -9999 -9999 -9999 -9999 -9999 -9999 -9999 -9999 -9999 -9999 -9999 1075.266 1132.15 1176.64 1123.82 1103.38 982.79 883.81 950.92 1034.34 1154.62 1267.57 1404.94 1477.57 1448.96 1464.63 1558.17 1679.81 1817.07 1985.05 2082.55 2150.83 2211.81 2230.57 2167.13 2162.98 2253.11 2202.48 2069.69 2029.84 1947.99 1889.23 1793.01 1669.38 1794.38 1946.76 1844.93 1709.82 1629.62 1663.14 1799.88 1842.07 1863.34 1757.9 1570.89 1443.52 1373.17 1300.18 1333.28 1193.83 1030.45 918.91 822.07 745.03 775.46 823.22 890.06 931.27 1012.25 889.53 765.21 656.7 607.66 555.37 674.3376 777.6 -9999 -9999 -9999 -9999 -9999 -9999 -9999 -9999 -9999 
-9999 -9999 -9999 -9999 -9999 -9999 -9999 -9999 -9999 -9999 -9999 -9999 -9999 -9999 -9999 1098.667 1018.644 960.0076 903.5018 919.28 1010.54 1086.83 1168.34 1291.06 1392.39 1473.02 1571.42 1642.24 1716.77 1794.17 1886.28 2016.71 2099 2102.37 2076.21 2033.75 1980.91 2013.92 2099.29 2119.24 2067.29 1983.05 1825.01 1731.67 1684.74 1661.16 1798.78 1923.81 1815.44 1675.51 1516.72 1552.93 1686.26 1719.46 1712.7 1719.68 1664.35 1595.92 1487.58 1469.65 1451.4 1233.84 1175.28 1136.13 911.57 804.59 780.99 715.79 689.37 837.14 989.91 926.82 789.21 669.42 578.56 604.07 713.1725 -9999 -9999 -9999 -9999 -9999 -9999 -9999 -9999 -9999 -9999 
-9999 -9999 -9999 -9999 -9999 -9999 -9999 -9999 -9999 -9999 -9999 -9999 -9999 -9999 -9999 940.2358 872.53 868.9 887.55 950.75 1009.67 1083.8 1166.23 1246.2 1327 1422.05 1535.49 1645.53 1784.91 1890.55 1981.3 2025.75 1983.15 1884.04 1901.82 1919.8 1862.83 1925.42 2017.98 1971.18 1922.42 1931.27 1791.03 1646.13 1617.9 1730.8 1901.41 1932.49 1795.57 1650.83 1507.68 1423.55 1540.65 1596.76 1557.8 1555.1 1662.45 1692.4 1658.52 1624.85 1471.15 1441.15 1349.57 1173.24 1096.84 1025.9 941.35 818.15 652.57 714.27 883.12 875.84 735.07 598.62 576.2589 680.1445 751.3333 -9999 -9999 -9999 -9999 -9999 -9999 -9999 -9999 -9999 -9999 
-9999 -9999 -9999 -9999 -9999 -9999 -9999 -9999 -9999 -9999 -9999 -9999 879.2361 861.9794 856.3701 856.45 881.92 963.35 996.47 1108.56 1180.82 1237.3 1277.21 1404.63 1424.73 1546.26 1647.78 1732.36 1853.28 1961.79 1955.85 1839.71 1752.76 1708.19 1767.04 1781.01 1787.75 1900.59 1998.61 1977.65 1845.86 1782.19 1706.18 1606.3 1687.4 1825.47 1931.22 1921.53 1784.56 1626.25 1543.62 1433.8 1385.46 1490.13 1408.91 1409.89 1552.94 1573.63 1578.09 1657.45 1602.87 1553.93 1431.35 1348.25 1215.65 1081.62 937.15 798.01 692.02 621.42 771.4 851.14 721.5 598.25 544.42 562.5635 534.2238 550.5585 -9999 -9999 -9999 -9999 -9999 -9999 -9999 -9999 -9999 
-9999 -9999 -9999 -9999 -9999 -9999 -9999 -9999 -9999 -9999 -9999 -9999 815.9079 849.96 923.02 959.66 1005.51 1068.65 1099.02 1144.01 1252.9 1339.03 1391.19 1462.29 1560.75 1674.61 1766.06 1862.92 1906.67 1836.93 1734.89 1646.54 1642.24 1588.8 1600.72 1658.93 1775.73 1875.46 1965.4 1927.14 1835.15 1752.56 1619.66 1610.39 1743.47 1861.96 1822.17 1817.87 1796.63 1756.44 1654.55 1493.25 1361.51 1351.43 1286.57 1315.75 1490.06 1439.52 1394.44 1528.68 1553.18 1482.12 1450.89 1336.48 1235.74 1122.06 995.71 925.47 794.53 638.65 641.15 799.71 740.92 639.08 622.34 606.29 533.05 535.9719 532.5834 -9999 -9999 -9999 -9999 -9999 -9999 -9999 -9999 
-9999 -9999 -9999 -9999 -9999 -9999 -9999 -9999 -9999 -9999 -9999 -9999 -9999 918.1487 980.94 1055.43 1140.49 1200.91 1233.68 1258.75 1323.63 1404.29 1489.38 1559.43 1655.77 1741.43 1820.18 1869.21 1776.54 1679.74 1630.33 1553.36 1527.02 1470.71 1600.98 1708.92 1788.87 1891.6 1948.54 1863.01 1756.77 1656.74 1575.79 1627.81 1757.72 1754.46 1726.06 1666.4 1744.43 1787.03 1670.5 1596.04 1464.83 1314.43 1234.25 1188.96 1315.12 1289.55 1252.67 1343.55 1417.8 1328.39 1274.28 1276.43 1233.3 1189.97 1128.18 993.92 850.57 714.94 600.27 713.88 762.54 686.55 600.04 543.86 553.0817 -9999 -9999 -9999 -9999 -9999 -9999 -9999 -9999 -9999 -9999 
-9999 -9999 -9999 -9999 -9999 -9999 -9999 -9999 -9999 -9999 -9999 -9999 -9999 933.5065 982.35 1080.98 1180.22 1263.35 1327 1390.27 1443.63 1508.24 1550.7 1634.65 1750.76 1828.11 1890.47 1778.74 1606.63 1521.86 1499.53 1476.08 1354.73 1476.7 1632.89 1709.03 1754.36 1814.12 1866.29 1833.69 1753.92 1611.38 1556.12 1692.15 1709.58 1597.06 1556.28 1541.62 1624.78 1673.82 1709.54 1689.78 1591.49 1446.71 1256.42 1090.76 1119.24 1162.13 1109.77 1264.71 1249.88 1176.22 1170.71 1202.1 1178.21 1080.07 1136.53 1047.42 896.47 750.18 612.47 584.52 672.98 637.05 561.4 551.9827 558.1667 -9999 -9999 -9999 -9999 -9999 -9999 -9999 -9999 -9999 -9999 
-9999 -9999 -9999 -9999 -9999 -9999 -9999 -9999 -9999 -9999 -9999 -9999 -9999 987.1036 1063.51 1172.29 1263.41 1331.39 1396.56 1437.55 1499.8 1586.83 1643.26 1721.04 1820 1897.23 1875.01 1714.24 1574.27 1413.53 1366.45 1313.9 1344.32 1505.58 1589.35 1644.27 1690.49 1765.88 1881.43 1890 1759.22 1615.87 1530.29 1610.39 1568.66 1481.54 1403.68 1463.89 1509.95 1428.92 1488.03 1534.57 1585.55 1493.19 1331.24 1184.21 1029.29 1005.55 986.41 1086.54 1048.61 1015.34 1032.59 1134.63 1124.65 967.57 963.91 985.09 918.57 825.45 681.2 565.83 562.44 547.67 531.49 567.9805 -9999 -9999 -9999 -9999 -9999 -9999 -9999 -9999 -9999 -9999 -9999 
-9999 -9999 -9999 -9999 -9999 -9999 -9999 -9999 -9999 -9999 -9999 -9999 1106.725 1120.544 1136.93 1213.88 1288.26 1373.5 1437.52 1511.16 1598.56 1667.98 1733.06 1783.35 1843.14 1869.73 1718.46 1528.59 1395.94 1333.01 1216.42 1265.11 1358.54 1468.3 1522.63 1578.2 1697.14 1825.81 1936.3 1893.79 1771.63 1637.47 1501.01 1498.35 1400.92 1305.41 1217.05 1270.18 1331.14 1224.62 1277.82 1316.1 1422.89 1446.22 1394.64 1266.25 1115.46 969.13 840.37 889.52 885.57 954.18 1071.71 1098.95 1094.85 989.37 837.86 853.76 834.44 750.2 624.83 530.89 524.82 547.8307 555.0351 -9999 -9999 -9999 -9999 -9999 -9999 -9999 -9999 -9999 -9999 -9999 -9999 
-9999 -9999 -9999 -9999 -9999 -9999 -9999 -9999 -9999 -9999 -9999 -9999 1035.18 1129.5 1194.92 1252.18 1334.84 1396.57 1451.26 1481.86 1558.94 1658.32 1767.29 1865.63 1924.58 1759.78 1529.1 1346.23 1233.13 1168.48 1214.51 1313.7 1442.23 1551.77 1597.3 1608.12 1675.82 1784.12 1893.1 1877.91 1735.02 1607.59 1524.81 1482.46 1480.25 1404.65 1233.37 1096.21 1077.99 1067.33 1087.54 1150.02 1229.54 1250.18 1287.09 1198.17 1080.03 940.74 778.91 751.21 808.15 962.2 1020.34 1017.25 1052.79 1007.89 822.63 710.89 716.05 674.87 573.61 522.49 563.2789 561.5 -9999 -9999 -9999 -9999 -9999 -9999 -9999 -9999 -9999 -9999 -9999 -9999 -9999 
-9999 -9999 -9999 -9999 -9999 -9999 -9999 -9999 -9999 -9999 -9999 -9999 1003.844 1092.71 1201.31 1262.09 1316.9 1389.63 1466.83 1564.98 1620.82 1683.49 1774.19 1872.54 1948.12 1741.16 1524.99 1364 1205.03 1140.92 1242.68 1339.67 1439.79 1471.66 1488.32 1579.28 1693.43 1823.97 1903.25 1899.73 1802.8 1681.15 1668.29 1618.95 1638.55 1506.99 1276.87 1157.79 1095.01 974.6 893.16 956.03 1073.03 1041.79 1113.62 999.48 938.32 930.75 925.08 786.85 702.01 812.64 896.95 901.84 938.82 917.19 804.24 715.02 667.45 604.74 542.7 525.9797 -9999 -9999 -9999 -9999 -9999 -9999 -9999 -9999 -9999 -9999 -9999 -9999 -9999 -9999 -9999 
-9999 -9999 -9999 -9999 -9999 -9999 -9999 -9999 -9999 -9999 -9999 -9999 995.8462 1039.54 1132.93 1218.59 1300.67 1396.5 1452.82 1540.35 1611.32 1669.75 1750.4 1847.89 1895.57 1795.37 1632.88 1397.57 1182.1 1108.33 1228.35 1288.3 1310.33 1406 1518.43 1620.73 1732.72 1852.37 1956.48 1957.9 1908.82 1827.57 1827 1779.05 1661.4 1495.68 1416.85 1386.06 1259.54 1125.85 967.9 808.51 850.12 860.28 884.81 869.22 788.06 860.9 877.55 818.91 666.65 681.72 774.71 769.7 842 757.44 711.27 649.72 605 560.41 520.99 556.9843 -9999 -9999 -9999 -9999 -9999 -9999 -9999 -9999 -9999 -9999 -9999 -9999 -9999 -9999 -9999 
-9999 -9999 -9999 -9999 -9999 -9999 -9999 -9999 -9999 -9999 -9999 -9999 1031.75 1040.984 1077.72 1166.76 1247.49 1354.23 1450.7 1471 1530.17 1615.61 1654.54 1752.6 1785.43 1605.87 1463.04 1356.86 1272.53 1101.68 1123.19 1149.72 1243.51 1346.27 1484.72 1628.28 1790.53 1915.67 1982.11 2018.87 2003.83 1996.82 1939.26 1823.65 1677.15 1580.8 1557.09 1357.38 1163.83 995.37 915.97 875.88 816.29 747.44 754.96 724.38 696.01 702.07 676.01 679.45 621.44 612.72 634.2 672.05 732.91 638.66 610.35 546.53 526.13 518.6521 564.6249 588.8333 -9999 -9999 -9999 -9999 -9999 -9999 -9999 -9999 -9999 -9999 -9999 -9999 -9999 -9999 -9999 
-9999 -9999 -9999 -9999 -9999 -9999 -9999 -9999 -9999 -9999 -9999 -9999 -9999 1026.478 1030.96 1097.8 1170.89 1277.34 1308.99 1350.2 1445.51 1510.12 1581.5 1693.78 1748.63 1621.04 1483.09 1353.71 1219.38 1086.54 1068.27 1190.9 1350.63 1491.36 1584.65 1702.97 1794.49 1879.58 1967.94 2064.36 2068.64 2013.7 1903.93 1797.59 1702.12 1545.47 1404.88 1239.53 1126.07 1121.97 1107.84 1050.7 923.87 880.41 934.93 900.2 900.6 834.16 762.47 739.62 798.68 814.34 711.5 603.76 621.43 569.36 554.36 597.99 599.08 510.0808 540.3478 -9999 -9999 -9999 -9999 -9999 -9999 -9999 -9999 -9999 -9999 -9999 -9999 -9999 -9999 -9999 -9999 
-9999 -9999 -9999 -9999 -9999 -9999 -9999 -9999 -9999 -9999 -9999 -9999 -9999 -9999 962.8035 996.27 1094.385 1234.2 1221.589 1277.534 1318.1 1378.43 1454.08 1565.21 1648.88 1565.89 1397.54 1225.18 1071.31 1028.65 1121.25 1221.04 1326.36 1408.32 1518.75 1657.53 1771.12 1908.2 2001.32 2070.08 2076.6 2017.06 1880.43 1713.25 1548.96 1404.66 1302.44 1308.43 1334.1 1328.5 1223.2 1069.31 1005.69 1073.49 1138.58 1144.76 1103.25 1034.77 984.73 977.51 989.68 907.53 769.42 606.74 561.81 649.58 713.24 737.9291 658.2615 523.1539 494.6967 -9999 -9999 -9999 -9999 -9999 -9999 -9999 -9999 -9999 -9999 -9999 -9999 -9999 -9999 -9999 -9999 
-9999 -9999 -9999 -9999 -9999 -9999 -9999 -9999 -9999 -9999 -9999 -9999 -9999 -9999 919.9167 926.8937 1039.369 -9999 -9999 -9999 1191.77 1260.45 1375.98 1498.85 1476.73 1424.37 1312.07 1170.02 1010.09 1039.16 1170.38 1286.55 1404.91 1457.71 1565.15 1668.91 1776.57 1898.87 1987.24 2078.52 2084.72 2034.88 1888.81 1719.98 1600.76 1483.2 1437.16 1488.22 1528.5 1406.4 1284.58 1265.62 1255.73 1245.45 1301.36 1187.75 1119.23 1069.2 1043 979.93 942.14 914.97 821.07 734.32 719.99 800.81 802.2606 755.5 -9999 -9999 -9999 -9999 -9999 -9999 -9999 -9999 -9999 -9999 -9999 -9999 -9999 -9999 -9999 -9999 -9999 -9999 -9999 
-9999 -9999 -9999 -9999 -9999 -9999 -9999 -9999 -9999 -9999 -9999 -9999 -9999 -9999 -9999 881.0617 962.9762 -9999 -9999 -9999 1182.761 1288.21 1358.02 1319.8 1252.5 1197.49 1232.02 1148.26 983.9 1034.96 1160.27 1313.81 1440.9 1517 1605.19 1716.25 1815.3 1900.59 1964.08 1985.94 1977.28 1997.1 1919.62 1794.59 1663.26 1635.39 1584.97 1625.09 1554.54 1436.27 1393.81 1381.45 1346.6 1297.58 1224.99 1096.97 994.86 982.2 943.47 898.37 861.6 843.05 793.99 794.05 789.56 770.0291 -9999 -9999 -9999 -9999 -9999 -9999 -9999 -9999 -9999 -9999 -9999 -9999 -9999 -9999 -9999 -9999 -9999 -9999 -9999 -9999 -9999 
-9999 -9999 -9999 -9999 -9999 -9999 -9999 -9999 -9999 -9999 -9999 -9999 -9999 -9999 -9999 -9999 -9999 -9999 -9999 -9999 1234.661 1289.34 1224.16 1096.18 1036.25 998.37 1035.53 1090.34 974.64 975.92 1131.59 1296.81 1336.15 1417.39 1550.15 1686.33 1728.4 1738.32 1807.87 1859.69 1972.43 2018.92 1947.73 1875.69 1810.44 1776.44 1696.57 1611.26 1504.75 1422.16 1387.19 1320.97 1242.48 1181.85 1124.62 1044.47 944.77 892.67 853.64 809.64 806.08 755.84 717.55 724.44 755.8933 729.6667 -9999 -9999 -9999 -9999 -9999 -9999 -9999 -9999 -9999 -9999 -9999 -9999 -9999 -9999 -9999 -9999 -9999 -9999 -9999 -9999 -9999 
-9999 -9999 -9999 -9999 -9999 -9999 -9999 -9999 -9999 -9999 -9999 -9999 -9999 -9999 -9999 -9999 -9999 -9999 -9999 -9999 1202.045 1251.669 1190.95 1047.41 934.32 882.32 909.14 958.74 875.9 933.84 1070.1 1191.84 1310.91 1443.09 1527.6 1577.09 1634.13 1766.07 1865.1 1905.74 2028.37 1929.17 1801.33 1749.14 1733.17 1715.17 1728.28 1625.16 1522.28 1420.06 1305.58 1203.96 1148.63 1078.97 1032.41 941.97 867.37 809.35 752.14 703.45 674.92 629.7 592.4 616.48 674.2639 -9999 -9999 -9999 -9999 -9999 -9999 -9999 -9999 -9999 -9999 -9999 -9999 -9999 -9999 -9999 -9999 -9999 -9999 -9999 -9999 -9999 -9999 
-9999 -9999 -9999 -9999 -9999 -9999 -9999 -9999 -9999 -9999 -9999 -9999 -9999 -9999 -9999 -9999 -9999 -9999 -9999 -9999 -9999 1189.568 1173.09 1024.53 886.8 794 851.52 885.47 878.27 949.74 1066.44 1153.7 1269.53 1339.79 1442.61 1589.7 1714.55 1827.77 1895.63 1983.52 1958.28 1876.04 1777.31 1672.33 1590.99 1605.37 1604.86 1547.33 1490.12 1438.09 1340.05 1222.22 1138.46 1046.27 956.77 855.79 790.92 724.2 669.09 639.87 634.43 641.35 643.9152 562.1083 624 -9999 -9999 -9999 -9999 -9999 -9999 -9999 -9999 -9999 -9999 -9999 -9999 -9999 -9999 -9999 -9999 -9999 -9999 -9999 -9999 -9999 -9999 
-9999 -9999 -9999 -9999 -9999 -9999 -9999 -9999 -9999 -9999 -9999 -9999 -9999 -9999 -9999 -9999 -9999 -9999 -9999 -9999 -9999 1150.773 1117.38 980.4 837.56 768.29 895.83 1029.53 1065.04 1007.94 1066.06 1217.83 1305.17 1421.25 1551.79 1672.4 1771.22 1837.23 1905.96 1966.75 1899.44 1791.33 1712.66 1650.45 1546.17 1465.7 1411.64 1422.26 1411.92 1372.8 1294.69 1195.09 1100.79 1046.16 972.52 869.26 799.71 788.85 777.87 772.4 759.1478 780.2739 728.3928 -9999 -9999 -9999 -9999 -9999 -9999 -9999 -9999 -9999 -9999 -9999 -9999 -9999 -9999 -9999 -9999 -9999 -9999 -9999 -9999 -9999 -9999 -9999 -9999 
-9999 -9999 -9999 -9999 -9999 -9999 -9999 -9999 -9999 -9999 -9999 -9999 -9999 -9999 -9999 -9999 -9999 -9999 -9999 -9999 -9999 1065.167 939.592 861.11 775.18 783.46 891.36 1002.23 1130.05 1223.72 1269.41 1294.86 1352.14 1451.58 1594.42 1689.89 1770.03 1839.3 1923.43 1967.7 1924.45 1846 1722.74 1630.17 1520.63 1425.92 1336.25 1240.21 1274.05 1280.47 1213.08 1173.02 1139.42 1097.39 973.22 927.2 937.0009 908.4133 862.9381 868.5303 -9999 -9999 -9999 -9999 -9999 -9999 -9999 -9999 -9999 -9999 -9999 -9999 -9999 -9999 -9999 -9999 -9999 -9999 -9999 -9999 -9999 -9999 -9999 -9999 -9999 -9999 -9999 
-9999 -9999 -9999 -9999 -9999 -9999 -9999 -9999 -9999 -9999 -9999 -9999 -9999 -9999 -9999 -9999 -9999 -9999 -9999 -9999 -9999 -9999 761.5925 790.82 849.29 890.35 937.5 982.17 1112.7 1254.78 1410.68 1493.99 1537.82 1596.59 1649.94 1724.7 1787.16 1881.38 1858.47 1852.17 1836.22 1812.54 1787.81 1666 1543.64 1416.88 1304.4 1207.94 1092.86 1144.09 1113.33 1097.03 1140.16 1104.71 1067.588 1065.633 -9999 -9999 -9999 -9999 -9999 -9999 -9999 -9999 -9999 -9999 -9999 -9999 -9999 -9999 -9999 -9999 -9999 -9999 -9999 -9999 -9999 -9999 -9999 -9999 -9999 -9999 -9999 -9999 -9999 -9999 -9999 
-9999 -9999 -9999 -9999 -9999 -9999 -9999 -9999 -9999 -9999 -9999 -9999 -9999 -9999 -9999 -9999 -9999 -9999 -9999 -9999 -9999 868.2194 945.4604 1046.21 1072.16 1096.27 1073.8 1132.44 1195.32 1312.89 1487.73 1625.39 1733.06 1775.71 1798.3 1845.12 1859.91 1850.17 1772.48 1753.33 1764.94 1717.77 1754.87 1747.46 1622.74 1479.59 1305.21 1195.53 1069.86 961.89 945.31 966.32 1033.84 979.65 -9999 -9999 -9999 -9999 -9999 -9999 -9999 -9999 -9999 -9999 -9999 -9999 -9999 -9999 -9999 -9999 -9999 -9999 -9999 -9999 -9999 -9999 -9999 -9999 -9999 -9999 -9999 -9999 -9999 -9999 -9999 -9999 -9999 
-9999 -9999 -9999 -9999 -9999 -9999 -9999 -9999 -9999 -9999 -9999 -9999 -9999 -9999 -9999 -9999 -9999 -9999 -9999 -9999 -9999 981.2014 1085.14 1208.52 1328.13 1358.28 1370.88 1360.48 1411.87 1467.11 1559.6 1661.95 1814.09 1924.06 1966.34 1922.68 1801.16 1763.87 1743.86 1691.89 1673.39 1648.68 1685.81 1688.41 1705.76 1585.81 1444.37 1311.36 1168.34 1035.33 908.51 865.21 896.39 857.1125 -9999 -9999 -9999 -9999 -9999 -9999 -9999 -9999 -9999 -9999 -9999 -9999 -9999 -9999 -9999 -9999 -9999 -9999 -9999 -9999 -9999 -9999 -9999 -9999 -9999 -9999 -9999 -9999 -9999 -9999 -9999 -9999 -9999 
-9999 -9999 -9999 -9999 -9999 -9999 -9999 -9999 -9999 -9999 -9999 -9999 -9999 -9999 -9999 -9999 -9999 -9999 -9999 -9999 -9999 1036.872 1119.19 1219.42 1324.94 1438.71 1534.85 1552.89 1560.25 1520.52 1609.5 1727.67 1857.88 1889.23 1852.66 1760.21 1681.78 1626.42 1648.03 1596.24 1550.94 1572.48 1577.4 1623.85 1717.8 1664.26 1498.96 1365.27 1278.15 1166.6 1044.06 921.48 788.897 787.5 -9999 -9999 -9999 -9999 -9999 -9999 -9999 -9999 -9999 -9999 -9999 -9999 -9999 -9999 -9999 -9999 -9999 -9999 -9999 -9999 -9999 -9999 -9999 -9999 -9999 -9999 -9999 -9999 -9999 -9999 -9999 -9999 -9999 
-9999 -9999 -9999 -9999 -9999 -9999 -9999 -9999 -9999 -9999 -9999 -9999 -9999 -9999 -9999 -9999 -9999 -9999 -9999 -9999 -9999 1047.161 1136.86 1266.73 1344.14 1437.02 1485.65 1472.48 1432.79 1447.01 1563.43 1684.38 1786.98 1801.64 1790.71 1716.06 1630.41 1546.42 1541.66 1505.45 1456.38 1499.34 1496.63 1556.04 1618.84 1651.96 1589.02 1486.81 1377.64 1225.66 1139.75 1084.44 1032.476 -9999 -9999 -9999 -9999 -9999 -9999 -9999 -9999 -9999 -9999 -9999 -9999 -9999 -9999 -9999 -9999 -9999 -9999 -9999 -9999 -9999 -9999 -9999 -9999 -9999 -9999 -9999 -9999 -9999 -9999 -9999 -9999 -9999 -9999 
-9999 -9999 -9999 -9999 -9999 -9999 -9999 -9999 -9999 -9999 -9999 -9999 -9999 -9999 -9999 -9999 -9999 -9999 -9999 -9999 1315 1199.13 1181.6 1282.72 1372.2 1348.98 1349.04 1287.59 1316.57 1435.91 1561.66 1655.31 1743.99 1719.04 1687.3 1631.18 1564.5 1531.15 1473.84 1452.62 1416.92 1408.78 1431.19 1452.57 1535.7 1579.7 1623.04 1579.29 1483.44 1399.19 1310.7 1172.84 1069.209 987 -9999 -9999 -9999 -9999 -9999 -9999 -9999 -9999 -9999 -9999 -9999 -9999 -9999 -9999 -9999 -9999 -9999 -9999 -9999 -9999 -9999 -9999 -9999 -9999 -9999 -9999 -9999 -9999 -9999 -9999 -9999 -9999 -9999 
-9999 -9999 -9999 -9999 -9999 -9999 -9999 -9999 -9999 -9999 -9999 -9999 -9999 -9999 -9999 -9999 -9999 -9999 -9999 -9999 1298.5 1378.888 1362 1382.14 1345.59 1236.25 1203.02 1231.45 1329.68 1438.64 1513.16 1621.26 1741.05 1714.81 1626.12 1577.06 1564.6 1579.86 1564.22 1505.83 1418.47 1379.46 1383.59 1426.74 1471.66 1485.04 1536.65 1559.18 1523.77 1483.61 1385.91 1227.42 1101.93 1032.694 -9999 -9999 -9999 -9999 -9999 -9999 -9999 -9999 -9999 -9999 -9999 -9999 -9999 -9999 -9999 -9999 -9999 -9999 -9999 -9999 -9999 -9999 -9999 -9999 -9999 -9999 -9999 -9999 -9999 -9999 -9999 -9999 -9999 
-9999 -9999 -9999 -9999 -9999 -9999 -9999 -9999 -9999 -9999 -9999 -9999 -9999 -9999 -9999 -9999 -9999 -9999 -9999 -9999 -9999 1417.503 1391.75 1340.67 1235.86 1145.25 1123.67 1234.11 1369.99 1483.73 1568.5 1644.56 1684.28 1692.28 1717.34 1688.93 1681.17 1663.29 1613.1 1578.7 1481.89 1433.91 1378.68 1365.52 1386.71 1389.65 1428.03 1445.92 1401.74 1395.52 1338.42 1182.71 1077.163 1040.417 -9999 -9999 -9999 -9999 -9999 -9999 -9999 -9999 -9999 -9999 -9999 -9999 -9999 -9999 -9999 -9999 -9999 -9999 -9999 -9999 -9999 -9999 -9999 -9999 -9999 -9999 -9999 -9999 -9999 -9999 -9999 -9999 -9999 
-9999 -9999 -9999 -9999 -9999 -9999 -9999 -9999 -9999 -9999 -9999 -9999 -9999 -9999 -9999 -9999 -9999 -9999 -9999 -9999 -9999 1353.841 1265.722 1239.84 1148.57 1049.95 1100.7 1203.2 1318.63 1427.07 1487.6 1570.08 1579.86 1602.08 1581.95 1568.56 1559.11 1523.38 1515.2 1550.4 1606.96 1559.72 1394.98 1288.05 1273.64 1277.35 1327.66 1361.22 1315.12 1294.22 1236.3 1129.55 1004.241 -9999 -9999 -9999 -9999 -9999 -9999 -9999 -9999 -9999 -9999 -9999 -9999 -9999 -9999 -9999 -9999 -9999 -9999 -9999 -9999 -9999 -9999 -9999 -9999 -9999 -9999 -9999 -9999 -9999 -9999 -9999 -9999 -9999 -9999 
-9999 -9999 -9999 -9999 -9999 -9999 -9999 -9999 -9999 -9999 -9999 -9999 -9999 -9999 -9999 -9999 -9999 -9999 -9999 -9999 -9999 -9999 -9999 1134.729 1037.363 1040.09 1165.02 1257.72 1342.38 1372.08 1414.97 1445.63 1473.26 1500.6 1447.82 1443.52 1447.42 1408.89 1420.32 1481.61 1579.05 1577.32 1443.56 1291.96 1189.471 1170.147 1231.38 1271.39 1229 1160.24 1102.59 1054.31 991.1155 -9999 -9999 -9999 -9999 -9999 -9999 -9999 -9999 -9999 -9999 -9999 -9999 -9999 -9999 -9999 -9999 -9999 -9999 -9999 -9999 -9999 -9999 -9999 -9999 -9999 -9999 -9999 -9999 -9999 -9999 -9999 -9999 -9999 -9999 
-9999 -9999 -9999 -9999 -9999 -9999 -9999 -9999 -9999 -9999 -9999 -9999 -9999 -9999 -9999 -9999 -9999 -9999 -9999 -9999 -9999 -9999 -9999 -9999 1000.317 1111.02 1193.7 1306.88 1353.45 1286.41 1276.02 1271.62 1359.19 1396.57 1331.16 1332.96 1331.5 1313.37 1365.79 1433.46 1552.02 1616.2 1520.86 1339.32 1185.462 1108.583 1106.829 1152.262 1120.123 1061.848 1020.842 980.957 -9999 -9999 -9999 -9999 -9999 -9999 -9999 -9999 -9999 -9999 -9999 -9999 -9999 -9999 -9999 -9999 -9999 -9999 -9999 -9999 -9999 -9999 -9999 -9999 -9999 -9999 -9999 -9999 -9999 -9999 -9999 -9999 -9999 -9999 -9999 
-9999 -9999 -9999 -9999 -9999 -9999 -9999 -9999 -9999 -9999 -9999 -9999 -9999 -9999 -9999 -9999 -9999 -9999 -9999 -9999 -9999 -9999 -9999 -9999 941.6033 1041.71 1173.25 1301.43 1347.15 1217.34 1146.47 1196.53 1297.92 1351.73 1272 1221.588 1208.31 1248.02 1278.83 1381.66 1486.42 1546.79 1483.84 1326.78 1190.92 -9999 -9999 -9999 -9999 -9999 -9999 -9999 -9999 -9999 -9999 -9999 -9999 -9999 -9999 -9999 -9999 -9999 -9999 -9999 -9999 -9999 -9999 -9999 -9999 -9999 -9999 -9999 -9999 -9999 -9999 -9999 -9999 -9999 -9999 -9999 -9999 -9999 -9999 -9999 -9999 -9999 -9999 
-9999 -9999 -9999 -9999 -9999 -9999 -9999 -9999 -9999 -9999 -9999 -9999 -9999 -9999 -9999 -9999 -9999 -9999 -9999 -9999 -9999 -9999 -9999 -9999 956.74 1082.45 1189.33 1281.88 1312.47 1223.59 1107.97 1098.13 1182.03 1219.643 1194.459 1232.556 1115.841 1162.58 1246.37 1339.6 1384.67 1408.7 1361.61 1221.44 1086.572 -9999 -9999 -9999 -9999 -9999 -9999 -9999 -9999 -9999 -9999 -9999 -9999 -9999 -9999 -9999 -9999 -9999 -9999 -9999 -9999 -9999 -9999 -9999 -9999 -9999 -9999 -9999 -9999 -9999 -9999 -9999 -9999 -9999 -9999 -9999 -9999 -9999 -9999 -9999 -9999 -9999 -9999 
-9999 -9999 -9999 -9999 -9999 -9999 -9999 -9999 -9999 -9999 -9999 -9999 -9999 -9999 -9999 -9999 -9999 -9999 -9999 -9999 -9999 -9999 -9999 -9999 958.8087 1085.15 1202.66 1265.17 1220.18 1176.38 1079.57 999.0341 1101.869 -9999 -9999 -9999 1036.379 1144.021 1239.51 1276.11 1290.61 1296.22 1279.32 1186.045 1091.333 -9999 -9999 -9999 -9999 -9999 -9999 -9999 -9999 -9999 -9999 -9999 -9999 -9999 -9999 -9999 -9999 -9999 -9999 -9999 -9999 -9999 -9999 -9999 -9999 -9999 -9999 -9999 -9999 -9999 -9999 -9999 -9999 -9999 -9999 -9999 -9999 -9999 -9999 -9999 -9999 -9999 -9999 
-9999 -9999 -9999 -9999 -9999 -9999 -9999 -9999 -9999 -9999 -9999 -9999 -9999 -9999 -9999 -9999 -9999 -9999 -9999 -9999 -9999 -9999 -9999 -9999 996.0667 1097.607 1155.66 1178.53 1116.45 1079.81 1003.83 905.6885 -9999 -9999 -9999 -9999 -9999 1173 1172.614 1245.523 1205.9 1229.21 1224.213 1179.583 -9999 -9999 -9999 -9999 -9999 -9999 -9999 -9999 -9999 -9999 -9999 -9999 -9999 -9999 -9999 -9999 -9999 -9999 -9999 -9999 -9999 -9999 -9999 -9999 -9999 -9999 -9999 -9999 -9999 -9999 -9999 -9999 -9999 -9999 -9999 -9999 -9999 -9999 -9999 -9999 -9999 -9999 -9999 
-9999 -9999 -9999 -9999 -9999 -9999 -9999 -9999 -9999 -9999 -9999 -9999 -9999 -9999 -9999 -9999 -9999 -9999 -9999 -9999 -9999 -9999 -9999 -9999 -9999 1008.125 1070.76 1045.41 1060.16 992.27 968.74 919.4 839.8625 819.1061 -9999 -9999 -9999 -9999 -9999 1200.4 1161.407 1146.761 1168 -9999 -9999 -9999 -9999 -9999 -9999 -9999 -9999 -9999 -9999 -9999 -9999 -9999 -9999 -9999 -9999 -9999 -9999 -9999 -9999 -9999 -9999 -9999 -9999 -9999 -9999 -9999 -9999 -9999 -9999 -9999 -9999 -9999 -9999 -9999 -9999 -9999 -9999 -9999 -9999 -9999 -9999 -9999 -9999 
-9999 -9999 -9999 -9999 -9999 -9999 -9999 -9999 -9999 -9999 -9999 -9999 -9999 -9999 -9999 -9999 -9999 -9999 -9999 -9999 -9999 -9999 -9999 -9999 -9999 1045.932 1074.911 956.0569 943.08 908.85 900.37 936.25 839.25 779.0571 771.8572 -9999 -9999 -9999 -9999 -9999 -9999 -9999 -9999 -9999 -9999 -9999 -9999 -9999 -9999 -9999 -9999 -9999 -9999 -9999 -9999 -9999 -9999 -9999 -9999 -9999 -9999 -9999 -9999 -9999 -9999 -9999 -9999 -9999 -9999 -9999 -9999 -9999 -9999 -9999 -9999 -9999 -9999 -9999 -9999 -9999 -9999 -9999 -9999 -9999 -9999 -9999 -9999 
-9999 -9999 -9999 -9999 -9999 -9999 -9999 -9999 -9999 -9999 -9999 -9999 -9999 -9999 -9999 -9999 -9999 -9999 -9999 -9999 -9999 -9999 -9999 -9999 -9999 -9999 -9999 -9999 853.9 844.6168 802.7628 845.28 863.26 825.2 -9999 -9999 -9999 -9999 -9999 -9999 -9999 -9999 -9999 -9999 -9999 -9999 -9999 -9999 -9999 -9999 -9999 -9999 -9999 -9999 -9999 -9999 -9999 -9999 -9999 -9999 -9999 -9999 -9999 -9999 -9999 -9999 -9999 -9999 -9999 -9999 -9999 -9999 -9999 -9999 -9999 -9999 -9999 -9999 -9999 -9999 -9999 -9999 -9999 -9999 -9999 -9999 -9999 
-9999 -9999 -9999 -9999 -9999 -9999 -9999 -9999 -9999 -9999 -9999 -9999 -9999 -9999 -9999 -9999 -9999 -9999 -9999 -9999 -9999 -9999 -9999 -9999 -9999 -9999 -9999 -9999 -9999 -9999 -9999 777.5454 784.3011 -9999 -9999 -9999 -9999 -9999 -9999 -9999 -9999 -9999 -9999 -9999 -9999 -9999 -9999 -9999 -9999 -9999 -9999 -9999 -9999 -9999 -9999 -9999 -9999 -9999 -9999 -9999 -9999 -9999 -9999 -9999 -9999 -9999 -9999 -9999 -9999 -9999 -9999 -9999 -9999 -9999 -9999 -9999 -9999 -9999 -9999 -9999 -9999 -9999 -9999 -9999 -9999 -9999 -9999 
