ncols         89
nrows         104
xllcorner     108.56432649184
yllcorner     27.751714640333
cellsize      0.0027780488750801
NODATA_value  -9999
-9999 -9999 -9999 -9999 -9999 -9999 -9999 -9999 -9999 -9999 -9999 -9999 -9999 -9999 -9999 -9999 -9999 -9999 -9999 -9999 -9999 -9999 -9999 -9999 -9999 -9999 -9999 -9999 -9999 -9999 -9999 -9999 -9999 -9999 -9999 -9999 -9999 -9999 -9999 -9999 -9999 -9999 -9999 -9999 -9999 -9999 -9999 -9999 -9999 -9999 -9999 -9999 -9999 -9999 -9999 -9999 976 -9999 -9999 -9999 -9999 -9999 -9999 -9999 -9999 -9999 -9999 -9999 -9999 -9999 -9999 -9999 -9999 -9999 -9999 -9999 -9999 -9999 -9999 -9999 -9999 -9999 -9999 -9999 -9999 -9999 -9999 -9999 -9999 
-9999 -9999 -9999 -9999 -9999 -9999 -9999 -9999 -9999 -9999 -9999 -9999 -9999 -9999 -9999 -9999 -9999 -9999 -9999 -9999 -9999 -9999 -9999 -9999 -9999 -9999 -9999 -9999 -9999 -9999 -9999 -9999 -9999 -9999 -9999 -9999 -9999 -9999 -9999 -9999 -9999 -9999 -9999 -9999 -9999 -9999 -9999 -9999 -9999 -9999 -9999 -9999 -9999 -9999 -9999 1001.25 1031.813 -9999 -9999 -9999 -9999 -9999 -9999 -9999 -9999 -9999 -9999 -9999 -9999 -9999 -9999 -9999 -9999 -9999 -9999 -9999 -9999 -9999 -9999 -9999 -9999 -9999 -9999 -9999 -9999 -9999 -9999 -9999 -9999 
-9999 -9999 -9999 -9999 -9999 -9999 -9999 -9999 -9999 -9999 -9999 -9999 -9999 -9999 -9999 -9999 -9999 -9999 -9999 -9999 -9999 -9999 -9999 -9999 -9999 -9999 -9999 -9999 -9999 -9999 -9999 -9999 -9999 -9999 -9999 -9999 -9999 -9999 -9999 -9999 -9999 -9999 -9999 -9999 -9999 -9999 -9999 -9999 -9999 -9999 -9999 -9999 -9999 -9999 -9999 960.375 1032.333 -9999 -9999 -9999 -9999 -9999 -9999 -9999 -9999 -9999 -9999 -9999 -9999 -9999 -9999 -9999 -9999 -9999 -9999 -9999 -9999 -9999 -9999 -9999 -9999 -9999 -9999 -9999 -9999 -9999 -9999 -9999 -9999 
-9999 -9999 -9999 -9999 -9999 -9999 -9999 -9999 -9999 -9999 -9999 -9999 -9999 -9999 -9999 -9999 -9999 -9999 -9999 -9999 -9999 -9999 -9999 -9999 -9999 -9999 -9999 -9999 -9999 -9999 -9999 -9999 -9999 -9999 -9999 -9999 -9999 -9999 -9999 -9999 -9999 -9999 -9999 -9999 -9999 -9999 -9999 -9999 -9999 -9999 -9999 -9999 -9999 -9999 932.7692 888.1978 952.0741 -9999 -9999 -9999 -9999 -9999 -9999 -9999 -9999 -9999 -9999 -9999 -9999 -9999 -9999 -9999 -9999 -9999 -9999 -9999 -9999 -9999 -9999 -9999 -9999 -9999 -9999 -9999 -9999 -9999 -9999 -9999 -9999 
-9999 -9999 -9999 -9999 -9999 -9999 -9999 -9999 -9999 -9999 -9999 -9999 -9999 -9999 -9999 -9999 -9999 -9999 -9999 -9999 -9999 -9999 -9999 -9999 -9999 -9999 -9999 -9999 -9999 -9999 -9999 -9999 -9999 -9999 -9999 -9999 -9999 -9999 -9999 -9999 -9999 -9999 -9999 -9999 -9999 -9999 -9999 -9999 -9999 -9999 -9999 -9999 -9999 1056.387 983.6383 892.9 950.04 1020.081 -9999 -9999 -9999 -9999 -9999 -9999 -9999 -9999 -9999 -9999 -9999 -9999 -9999 -9999 -9999 -9999 -9999 -9999 -9999 -9999 -9999 -9999 -9999 -9999 -9999 -9999 -9999 -9999 -9999 -9999 -9999 
-9999 -9999 -9999 -9999 -9999 -9999 -9999 -9999 -9999 -9999 -9999 -9999 -9999 -9999 -9999 -9999 -9999 -9999 -9999 -9999 -9999 -9999 -9999 -9999 -9999 -9999 -9999 -9999 -9999 -9999 -9999 -9999 -9999 -9999 -9999 -9999 -9999 -9999 -9999 -9999 -9999 -9999 -9999 -9999 -9999 -9999 -9999 -9999 -9999 -9999 -9999 -9999 1229 1172.057 1032.52 903.49 949.78 1024.92 -9999 -9999 -9999 -9999 -9999 -9999 -9999 -9999 -9999 -9999 -9999 -9999 -9999 -9999 -9999 -9999 -9999 -9999 -9999 -9999 -9999 -9999 -9999 -9999 -9999 -9999 -9999 -9999 -9999 -9999 -9999 
-9999 -9999 -9999 -9999 -9999 -9999 -9999 -9999 -9999 -9999 -9999 -9999 -9999 -9999 -9999 -9999 -9999 -9999 -9999 -9999 -9999 -9999 -9999 -9999 -9999 -9999 -9999 -9999 -9999 -9999 -9999 -9999 -9999 -9999 -9999 -9999 -9999 -9999 -9999 -9999 -9999 -9999 -9999 -9999 -9999 -9999 -9999 -9999 -9999 -9999 -9999 -9999 1226 1158.27 1040.49 950.41 907.15 952.2453 -9999 -9999 -9999 -9999 -9999 1177.615 1249.9 1300.375 -9999 -9999 1168.333 -9999 -9999 -9999 -9999 -9999 -9999 -9999 -9999 -9999 -9999 -9999 -9999 -9999 -9999 -9999 -9999 -9999 -9999 -9999 -9999 
-9999 -9999 -9999 -9999 -9999 -9999 -9999 -9999 -9999 -9999 -9999 -9999 -9999 -9999 -9999 -9999 -9999 -9999 -9999 -9999 -9999 -9999 -9999 -9999 -9999 -9999 -9999 -9999 -9999 -9999 -9999 -9999 -9999 -9999 -9999 -9999 -9999 -9999 -9999 -9999 -9999 -9999 -9999 -9999 -9999 -9999 -9999 -9999 -9999 -9999 -9999 -9999 -9999 1136.243 1044.81 987.08 955.3 933.4124 970.4243 943.375 -9999 -9999 1096.286 1137.525 1246.85 1325.94 1414.384 1345.256 1215.278 1167.718 1072.581 1016.86 1004.667 -9999 -9999 -9999 -9999 -9999 -9999 -9999 -9999 -9999 -9999 -9999 -9999 -9999 -9999 -9999 -9999 
-9999 -9999 -9999 -9999 -9999 -9999 -9999 -9999 -9999 -9999 -9999 -9999 -9999 -9999 -9999 -9999 -9999 -9999 -9999 -9999 -9999 -9999 -9999 -9999 -9999 -9999 -9999 -9999 -9999 -9999 -9999 -9999 -9999 -9999 -9999 -9999 -9999 -9999 -9999 -9999 -9999 -9999 -9999 -9999 -9999 -9999 -9999 -9999 -9999 -9999 -9999 -9999 -9999 1166.575 1089.09 1017.23 1001 945.08 941.74 992.62 1035.548 1105.957 1142.867 1187.08 1234.34 1312.66 1402.9 1379.85 1319.57 1235.65 1177.29 1127.42 1089.56 1008.194 953.6935 946.8571 1017 -9999 -9999 -9999 -9999 -9999 -9999 -9999 -9999 -9999 -9999 -9999 -9999 
-9999 -9999 -9999 -9999 -9999 -9999 -9999 -9999 -9999 -9999 -9999 -9999 -9999 -9999 -9999 -9999 -9999 -9999 -9999 -9999 -9999 -9999 -9999 -9999 -9999 -9999 -9999 -9999 -9999 -9999 -9999 -9999 -9999 -9999 -9999 -9999 -9999 -9999 -9999 -9999 -9999 -9999 -9999 -9999 -9999 -9999 -9999 -9999 -9999 -9999 -9999 -9999 -9999 1162.423 1105.56 1058.68 1051.33 972.52 983.84 1055.19 1125.6 1169.18 1229.35 1255.77 1320.18 1404.3 1450.1 1477.48 1403.25 1346.97 1272.35 1195.38 1085.84 1055.63 1017.35 960.72 1045.704 1101.514 -9999 -9999 -9999 -9999 -9999 -9999 -9999 -9999 -9999 -9999 -9999 
-9999 -9999 -9999 -9999 -9999 -9999 -9999 -9999 -9999 -9999 -9999 -9999 -9999 -9999 -9999 -9999 -9999 -9999 -9999 -9999 -9999 -9999 -9999 -9999 -9999 -9999 -9999 -9999 -9999 -9999 -9999 -9999 -9999 -9999 -9999 -9999 -9999 -9999 -9999 -9999 -9999 -9999 -9999 -9999 -9999 -9999 -9999 -9999 -9999 -9999 -9999 -9999 -9999 -9999 1166.25 1147.42 1087.03 998.52 1051.72 1082.92 1127.34 1209.85 1301.6 1371.27 1455.57 1492.96 1527.04 1561.35 1507.95 1451.43 1363.64 1237.25 1146.49 1125.88 1096.68 978.04 1014.51 1058.036 -9999 -9999 -9999 -9999 -9999 -9999 -9999 -9999 -9999 -9999 -9999 
-9999 -9999 -9999 -9999 -9999 -9999 -9999 -9999 -9999 -9999 -9999 -9999 -9999 -9999 -9999 -9999 -9999 -9999 -9999 -9999 -9999 -9999 -9999 -9999 -9999 -9999 -9999 -9999 -9999 -9999 -9999 -9999 -9999 -9999 -9999 -9999 -9999 -9999 -9999 -9999 -9999 -9999 -9999 -9999 -9999 -9999 -9999 -9999 -9999 -9999 -9999 -9999 -9999 -9999 1225.86 1133.1 1159.51 1012.2 1106.07 1169.56 1203.77 1265.9 1351.04 1454.22 1554.68 1570.36 1592.14 1657.86 1570.89 1511.6 1426.04 1346.53 1252.41 1216.34 1148.92 1029.07 997.14 959.7778 1008.333 -9999 -9999 -9999 -9999 -9999 -9999 -9999 -9999 -9999 -9999 
-9999 -9999 -9999 -9999 -9999 -9999 -9999 -9999 -9999 -9999 -9999 -9999 -9999 -9999 -9999 -9999 -9999 -9999 -9999 -9999 -9999 -9999 -9999 -9999 -9999 -9999 -9999 -9999 -9999 -9999 -9999 -9999 -9999 -9999 -9999 -9999 -9999 -9999 -9999 -9999 -9999 -9999 -9999 -9999 -9999 -9999 -9999 -9999 -9999 -9999 -9999 -9999 -9999 1294.231 1212 1198.74 1189.74 1019.92 1080.84 1200.7 1284.97 1355.87 1403.87 1506.37 1571.46 1600.98 1641.4 1640.94 1568.98 1445.51 1357.49 1308.78 1301.07 1295.89 1230.44 1182.43 1179.18 1033.11 1020.182 1149.222 -9999 -9999 -9999 -9999 -9999 -9999 -9999 -9999 -9999 
-9999 -9999 -9999 -9999 -9999 -9999 -9999 -9999 -9999 -9999 -9999 -9999 -9999 -9999 -9999 -9999 -9999 -9999 -9999 -9999 -9999 -9999 -9999 -9999 -9999 -9999 -9999 -9999 -9999 -9999 -9999 -9999 -9999 -9999 -9999 -9999 -9999 -9999 -9999 -9999 -9999 -9999 -9999 -9999 -9999 -9999 -9999 950.7308 957.7402 1035.174 -9999 1176.313 1188.5 1266.114 1280.67 1289.43 1196.52 1043.03 1137.91 1245.78 1298.68 1345.26 1436.41 1577.44 1634.18 1647.39 1687.44 1719.77 1627.87 1490.83 1397.25 1296.81 1187.63 1142.59 1210.51 1233.68 1152.01 1027.8 948.94 1088.36 1109.333 -9999 -9999 -9999 -9999 -9999 -9999 -9999 -9999 
-9999 -9999 -9999 -9999 -9999 -9999 -9999 -9999 -9999 -9999 -9999 -9999 -9999 -9999 -9999 -9999 -9999 -9999 -9999 -9999 -9999 -9999 -9999 -9999 -9999 -9999 -9999 -9999 -9999 -9999 -9999 -9999 -9999 -9999 -9999 -9999 -9999 -9999 -9999 -9999 -9999 -9999 -9999 -9999 965.2927 956.8452 946.16 1023.37 1029.48 1075.8 1169.077 1226.32 1258.026 1321.294 1351.383 1342.39 1207.03 1123.81 1056.68 1074.33 1253.29 1453.24 1480.39 1551.19 1649.18 1691.14 1784.97 1749.62 1644.61 1561.18 1472.7 1357.78 1256.07 1116.3 1058.6 1046.8 969.01 924.2 998.75 1070.97 1011.257 -9999 -9999 -9999 -9999 -9999 -9999 -9999 -9999 
-9999 -9999 -9999 -9999 -9999 -9999 -9999 -9999 -9999 -9999 -9999 -9999 -9999 -9999 -9999 -9999 -9999 -9999 -9999 -9999 -9999 -9999 -9999 -9999 -9999 -9999 -9999 -9999 -9999 -9999 -9999 -9999 -9999 -9999 -9999 -9999 -9999 -9999 -9999 -9999 -9999 -9999 -9999 -9999 1022.4 1072.02 1072.44 1169.77 1126.12 1088.89 1157.72 1229.04 1288.17 1390.827 1442.704 1400.31 1346.97 1283.41 1233.93 1133.77 1138.52 1346.23 1483.56 1583.85 1666.34 1701.41 1822.37 1773.21 1675.92 1565.87 1441.4 1320.63 1213.46 1109.33 1035.64 1045.88 1056.78 975.83 911.71 1016.398 -9999 -9999 -9999 -9999 -9999 -9999 -9999 -9999 -9999 
-9999 -9999 -9999 -9999 -9999 -9999 -9999 -9999 -9999 -9999 -9999 -9999 -9999 -9999 -9999 -9999 -9999 -9999 -9999 -9999 -9999 -9999 -9999 -9999 -9999 -9999 -9999 -9999 -9999 -9999 -9999 -9999 -9999 -9999 -9999 -9999 -9999 -9999 -9999 -9999 -9999 -9999 -9999 969.8 1056.463 1154.21 1202.83 1274.14 1226.94 1211.24 1214.09 1267.65 1331.26 1413.37 1493.1 1438.59 1476.6 1472.54 1336.68 1164.88 1109.27 1258.14 1323.64 1430.03 1557.15 1680.93 1793.75 1766.02 1661.72 1559.25 1432.48 1324.38 1217.03 1149.36 1087.74 1127.8 1066.45 1004.14 907.38 965.6105 1098.885 -9999 -9999 -9999 -9999 -9999 -9999 -9999 -9999 
-9999 -9999 -9999 -9999 -9999 -9999 -9999 -9999 -9999 -9999 -9999 -9999 -9999 -9999 -9999 -9999 -9999 -9999 -9999 -9999 -9999 -9999 -9999 -9999 -9999 -9999 -9999 -9999 -9999 -9999 -9999 -9999 -9999 -9999 -9999 -9999 -9999 -9999 -9999 -9999 -9999 -9999 -9999 1055.8 1014.25 1040.71 1111.59 1201.22 1290.06 1299.08 1337.96 1338.81 1432.57 1519.62 1549.54 1494.56 1562.74 1553.69 1360.95 1183.76 1121.07 1297.36 1433.18 1483.15 1593.36 1714.58 1794.81 1788.61 1698.69 1617.55 1505.04 1376.15 1298.33 1191.56 1049.7 988.49 958.65 905.72 873.37 951.06 1028.689 -9999 -9999 -9999 -9999 -9999 -9999 -9999 -9999 
-9999 -9999 -9999 -9999 -9999 -9999 -9999 -9999 -9999 -9999 -9999 -9999 -9999 -9999 -9999 -9999 -9999 -9999 -9999 -9999 -9999 -9999 -9999 -9999 -9999 -9999 -9999 -9999 -9999 -9999 -9999 1163.542 1175.107 1200.845 1162.13 1125.431 1129 -9999 -9999 -9999 -9999 -9999 1156.319 1190.888 1139.63 1030 1098.32 1112.3 1123.12 1198.66 1309.88 1424.47 1545.86 1618.81 1620.65 1552.06 1598.54 1514.91 1335.3 1165.67 1205.74 1293.77 1392.57 1528.12 1653.83 1785.55 1848.47 1856.15 1753.97 1633.58 1516.61 1406.92 1338.2 1239.25 1107.55 1011.24 957.07 959.87 962.9 886.81 880.1528 -9999 -9999 -9999 -9999 -9999 -9999 -9999 -9999 
-9999 -9999 -9999 -9999 -9999 -9999 -9999 -9999 -9999 -9999 -9999 -9999 -9999 -9999 -9999 -9999 -9999 -9999 -9999 -9999 -9999 -9999 -9999 -9999 -9999 -9999 -9999 -9999 -9999 1306.833 1254.413 1209.21 1247.25 1307.27 1248.4 1157.5 1121.264 1127.472 1142.662 1097.301 1114.872 1159.767 1253.77 1293.53 1210.6 1037.44 1128.03 1247.83 1139.53 1259.25 1391.47 1403.28 1518.74 1625.15 1679.19 1630.26 1587.72 1441.2 1288.07 1156.29 1259.9 1455.91 1549.37 1618.41 1671.81 1787.57 1895.65 1851.46 1745.73 1644.21 1557.7 1485.79 1427.38 1270.41 1123.93 1031.71 1031.64 1112.68 1053.28 951.3 849.81 907.3781 939.2963 -9999 -9999 -9999 -9999 -9999 -9999 
-9999 -9999 -9999 -9999 -9999 -9999 -9999 -9999 -9999 -9999 -9999 -9999 -9999 -9999 -9999 -9999 -9999 -9999 -9999 -9999 -9999 -9999 -9999 -9999 -9999 -9999 -9999 -9999 -9999 1358.5 1332.9 1267.7 1296.63 1366.75 1268.5 1150.55 1177.86 1203.02 1224.83 1168.28 1176.71 1249.81 1332.49 1328.88 1151.76 1059.85 1083.05 1137.3 1170.79 1247.26 1439.2 1499.68 1559.31 1674.66 1738.91 1697.04 1588.19 1418.91 1261.05 1160.87 1267.55 1408.5 1507.35 1647.65 1809.58 1906.45 1987.67 1892.52 1807.13 1724.24 1627.13 1548.53 1424.74 1298.39 1173.66 1154.04 1136.25 1079.72 974.89 859.79 894.11 913.1919 856.9885 858.5 -9999 -9999 -9999 -9999 -9999 
-9999 -9999 -9999 -9999 -9999 -9999 -9999 -9999 -9999 -9999 -9999 -9999 -9999 -9999 -9999 -9999 -9999 -9999 -9999 -9999 -9999 -9999 -9999 -9999 -9999 -9999 -9999 1399.143 1432 1429.68 1380.67 1319.5 1373.15 1397.69 1286.75 1187.61 1201.01 1283.16 1270.54 1238.47 1255.92 1317.02 1335.87 1224.84 1115.63 1140.16 1230.75 1186.28 1174.37 1245.35 1380.86 1562.81 1621.73 1702.96 1782.51 1742.39 1595.31 1456.67 1341.7 1232.71 1203.46 1364.92 1506.8 1616.96 1742.17 1901.69 1943.7 1901.48 1814.64 1714.6 1630.74 1544.91 1458.76 1344.82 1191.48 1087.52 999.7 917.47 860.5 833.53 882.93 902.8933 -9999 -9999 -9999 -9999 -9999 -9999 -9999 
-9999 -9999 -9999 -9999 -9999 -9999 -9999 -9999 -9999 -9999 -9999 -9999 -9999 -9999 -9999 -9999 -9999 -9999 -9999 -9999 1005.179 1046.962 -9999 -9999 -9999 1380.083 1347.15 1372.361 1439.39 1452.26 1418.78 1378.86 1442.11 1439.79 1318.57 1284.98 1233.13 1321.86 1317.9 1318.6 1384.83 1362.69 1194.4 1096.03 1135.29 1235.03 1369.66 1311.77 1191.41 1279.27 1399.95 1492.74 1595.94 1701.5 1817.13 1766.47 1637.54 1497.91 1372.74 1314.16 1209.19 1336.4 1506.08 1651.44 1773.4 1898.21 1910.52 1871.62 1781.8 1628.88 1503.87 1426.38 1376.19 1335.65 1215.55 1104.45 989.69 885.18 817.59 930.18 1033.057 1024.938 -9999 -9999 -9999 -9999 -9999 -9999 -9999 
-9999 -9999 -9999 -9999 -9999 -9999 -9999 -9999 -9999 -9999 -9999 -9999 -9999 -9999 -9999 -9999 -9999 -9999 -9999 984.8571 1070.68 1114.25 1133.197 1230.488 1310.787 1347.202 1350.99 1417.27 1442.22 1471.77 1510.37 1461.79 1500.73 1451.61 1383.73 1314.34 1276.77 1321.52 1396.78 1414.18 1361.63 1200.74 1158.52 1236.79 1214.57 1326.59 1477.72 1440.87 1303.41 1266.7 1327.19 1497.89 1592.96 1684.13 1786.6 1812.01 1680.64 1571.22 1469.6 1297.81 1236.67 1361.96 1449.38 1597.44 1755 1871.77 1885.68 1819.56 1734.89 1624.16 1482.02 1325.29 1240.37 1235.59 1190.89 1073.66 1006.31 948.72 819.49 872.67 963.9268 -9999 -9999 -9999 -9999 -9999 -9999 -9999 -9999 
-9999 -9999 -9999 -9999 -9999 -9999 -9999 -9999 -9999 -9999 -9999 -9999 -9999 -9999 -9999 -9999 -9999 -9999 922.3333 1030.711 1133.93 1233.11 1227.87 1305.57 1372.21 1325.41 1372.37 1393.29 1422.89 1451.34 1478.33 1502.83 1542.66 1540.54 1476.46 1354.44 1324.86 1351.81 1468.66 1389 1223.13 1264.6 1260.2 1368.16 1353.56 1322.92 1486.71 1539.53 1452.57 1461.77 1377.95 1431.67 1534.76 1661.45 1757.78 1855.09 1751.04 1599.45 1422.71 1262.18 1319.77 1475.04 1572.01 1635.54 1771.46 1891.31 1871.21 1789.3 1670.58 1537.42 1420.09 1273.92 1149.32 1107.15 1098.21 1022.81 898.46 820.4 851.34 950.36 1012.317 -9999 -9999 -9999 -9999 -9999 -9999 -9999 -9999 
-9999 -9999 -9999 -9999 -9999 -9999 -9999 -9999 -9999 -9999 -9999 -9999 -9999 -9999 -9999 -9999 -9999 -9999 911.6481 1019.39 1126.11 1237.46 1317.87 1340.39 1311.67 1258.21 1311.44 1330.71 1360.62 1385.72 1427.82 1473.03 1528.65 1598.55 1595.67 1475.01 1383.6 1425.68 1466.73 1265.82 1332.85 1429.28 1433.7 1505.75 1514.88 1439.8 1423.24 1598.09 1650.86 1564.42 1483.95 1561.61 1626.07 1626.43 1775.15 1834.21 1676.23 1508.14 1376.87 1284.65 1364.01 1435.01 1628.83 1764.38 1857.44 1919.21 1851.24 1752.05 1644.76 1530.48 1388.03 1231.23 1104.39 1005.16 965.53 921.95 866.32 798.02 843.05 971.5775 1052.6 -9999 -9999 -9999 -9999 -9999 -9999 -9999 -9999 
-9999 -9999 -9999 -9999 -9999 -9999 -9999 -9999 -9999 -9999 -9999 -9999 -9999 -9999 -9999 -9999 -9999 830.3889 905.6667 1036.78 1149.98 1214.38 1290.04 1246.07 1220.65 1281.3 1282.95 1361.02 1440.42 1443.73 1479.01 1549.58 1594.12 1622.83 1650.78 1516.01 1473.04 1522.15 1492.54 1341.68 1306.25 1487.55 1610.74 1679.97 1621.47 1683.36 1597.92 1615.72 1746.92 1658.83 1654.71 1603.29 1737.92 1789.02 1849.52 1773.07 1600.7 1432.87 1300.19 1342.8 1492.69 1534.89 1544.37 1686.28 1818.39 1928.88 1857.76 1726.31 1620.82 1516.89 1353.68 1233.17 1126.29 1007.65 935.13 921.87 881.91 848.38 812.53 824.1163 870.4286 -9999 -9999 -9999 -9999 -9999 -9999 -9999 -9999 
-9999 -9999 -9999 -9999 -9999 -9999 -9999 -9999 -9999 -9999 -9999 -9999 -9999 -9999 758.8 776.6071 807.7143 876.4066 997.17 1057.7 1130.25 1222.31 1263.09 1198.39 1240.7 1273.37 1330.21 1384.91 1469.62 1533.67 1565.7 1585.42 1633.02 1726.78 1732.11 1627.42 1575.77 1647.87 1578.76 1398.46 1302.98 1449.76 1636.02 1777.85 1818.42 1830.09 1762.32 1702.48 1794.77 1768.99 1771.54 1731.14 1764.51 1868.09 1875.85 1717.75 1544.98 1412.67 1331.05 1450.06 1585.73 1700.03 1669.36 1719.83 1854.1 1943.6 1871.34 1763.97 1666.44 1525.85 1395.47 1262.46 1141.93 1033.67 1112.85 1088.09 996.21 980.75 893.99 779.78 771.1803 787.6667 -9999 -9999 -9999 -9999 -9999 -9999 -9999 
-9999 -9999 -9999 -9999 -9999 -9999 -9999 -9999 -9999 -9999 -9999 -9999 -9999 755.8 780.603 872.39 905.21 967.8 1037.03 1100.75 1185.34 1269.58 1215.49 1209.07 1289.38 1350.53 1380.03 1425.24 1464.4 1524.22 1598.71 1688.08 1726.54 1761.14 1823.11 1772.6 1704.35 1728.65 1617.9 1480.84 1388.11 1452.16 1652.79 1837.36 1949.53 1984.11 1887.87 1810.35 1846.95 1898.21 1926.41 1844.33 1833.75 1911.12 1837.05 1708.11 1573.26 1425.54 1409.83 1500.49 1563.69 1661.93 1796.42 1863.98 1934.85 1970.74 1874.38 1763.87 1635.84 1499.44 1394.03 1279.43 1115.64 1168.91 1156.66 1024.9 957.82 894.31 857.16 803.78 754.91 826.3 -9999 -9999 -9999 -9999 -9999 -9999 -9999 
-9999 -9999 -9999 -9999 -9999 -9999 -9999 -9999 -9999 -9999 -9999 -9999 739 810.337 865.94 978.04 1047.62 1081.76 1112.75 1153.5 1201.22 1213.59 1203.04 1218 1328.7 1349.68 1377.21 1416.48 1482.05 1556.29 1627.18 1708.2 1790.34 1860.69 1909.69 1918.1 1832.85 1781.41 1720.75 1656.8 1531.03 1468.19 1632.14 1790.07 1909.32 1986.08 1988.13 1923.33 1899.03 1961.42 2020.36 1947.92 1893.36 1828.27 1696.08 1600.34 1547.55 1516.28 1465.9 1637.04 1687.22 1725.05 1830.02 1945.31 2036.95 1986.54 1911.93 1793.89 1646.01 1494.69 1348.26 1237.18 1201.91 1286.68 1177.15 1085.2 1073.01 1007.99 963.74 863.39 762.14 816.22 837.24 -9999 -9999 -9999 -9999 -9999 -9999 
-9999 -9999 -9999 -9999 -9999 -9999 -9999 -9999 -9999 -9999 -9999 -9999 741.5522 804.33 883.46 982.95 1074.86 1118.15 1135.69 1082.95 1077.05 1152.99 1165.35 1223.73 1307.4 1389.46 1412.04 1451.88 1472.98 1532.97 1607.8 1674.45 1739.84 1812.84 1884.46 1963.33 1871.2 1810.04 1763.38 1801.05 1678.66 1593.34 1648.73 1846.71 1934.95 1982.07 2022.52 2051.72 2034.5 2037.02 2074.58 2014.29 1909.75 1837.73 1769.49 1710.27 1622.78 1488.09 1571.22 1686.4 1830.96 1898.19 1890.86 1990.71 1980.54 1949.75 1930.71 1807.84 1675.07 1532.29 1397.4 1311.38 1354.69 1317.12 1244.59 1214.98 1169.69 1131.25 1062.74 987.56 854.59 760.59 787.1111 825.2 -9999 -9999 -9999 -9999 -9999 
-9999 -9999 -9999 -9999 -9999 -9999 -9999 -9999 -9999 -9999 -9999 -9999 727.5 755.13 858.24 961.4 989.72 1018.72 1041.33 989.44 1075.48 1170.87 1105.57 1214.98 1323.32 1438.64 1503.83 1512.22 1542.98 1564.64 1620.23 1639.31 1646.15 1677.15 1758.67 1859.94 1913.51 1851.2 1794.65 1878.81 1833.79 1709.18 1670.27 1810.99 1933.59 2020.35 2106.33 2173.95 2178.88 2152.54 2105.62 2034.8 1950.94 1888.54 1773.37 1643.51 1531.4 1536.97 1656.92 1786.14 1893.67 1988 1988.39 1927.53 1861.7 1822.3 1818.95 1726.43 1676.02 1570.99 1475.99 1464.41 1392.06 1226.97 1136.76 1071.37 1087.17 1085.26 1036.44 957.28 853.09 766.76 788.68 884.8571 -9999 -9999 -9999 -9999 -9999 
-9999 -9999 -9999 -9999 1267.529 1263.429 1119.029 1026.439 958.1647 911.9103 872.8387 777.4545 757.44 758.19 826.09 878.77 922.51 970.24 961.9 978.38 1091.15 1110.44 1046.87 1175.87 1284.29 1318.68 1417.31 1466.4 1396.16 1395.15 1445.06 1445.35 1487.45 1584.9 1677.08 1772.82 1895.54 1921.53 1833.57 1932.91 1937.08 1806.31 1768.28 1877.03 1906.51 1999.52 2101.82 2209.68 2172.23 2088.5 2007.52 1909.58 1813.7 1732.64 1603.39 1567.16 1614.84 1707 1781.32 1883.89 1958.23 1945.27 1922.5 1845.6 1718.18 1700.68 1685.66 1568.06 1570.47 1496.03 1429.28 1469.11 1353.48 1198.94 1090.8 999.07 937.21 921.04 955.58 882.32 785.21 767.61 876.8 942.2 -9999 -9999 -9999 -9999 -9999 
-9999 -9999 -9999 -9999 1338.452 1266.5 1162.76 1013.22 929.72 861.63 833.86 839.15 872.93 796.04 796.35 840.11 844.95 874.72 917.34 1007.52 1055.13 1025.35 1005.78 1114.54 1127.39 1150.6 1165.08 1137.32 1172.29 1221.07 1268.75 1313.75 1402.8 1513.45 1617.09 1765.71 1875.99 1944.5 1890.33 1963.26 1942.18 1799.21 1839.89 1963.99 1983.47 2020.1 2068.73 2130.49 2030.53 1969.18 1892.28 1780.54 1687.3 1611.8 1612.79 1693.32 1774.98 1819.87 1888.6 1981.24 1950.95 1873.13 1801.72 1762.94 1714.98 1576.01 1534.25 1443.75 1415.36 1359.54 1270.98 1302.07 1370.93 1244.9 1123.5 1025.63 903.08 834.26 821.3 837.14 753.43 794.65 860.4853 -9999 -9999 -9999 -9999 -9999 -9999 
-9999 -9999 -9999 1380.543 1353.57 1227.1 1100.1 987.62 927.97 932.93 946.02 962 1025.63 926.76 802.93 755.22 795.94 818.09 843.39 896.47 929.03 982.76 958.1 989.77 1037.83 1072.74 1039.82 1111.44 1168.78 1243.4 1318.12 1372.23 1382.66 1493.52 1600.18 1719.09 1830.27 1947.22 1959.37 2010.55 1961.14 1872.23 1837.9 1919.87 1999.58 2085.87 2159.9 2144.85 1986.73 1834.9 1730.82 1673.61 1666.47 1736.94 1744.56 1750.03 1904.43 2000.76 2045.13 2000.19 1910.73 1794.17 1704 1643.29 1608.72 1540.71 1401.56 1298.07 1249.34 1230.18 1126.11 1130.08 1233.39 1274.16 1272.09 1125.13 1014.81 960.61 822.71 731.56 748.68 814.35 854.5781 -9999 -9999 -9999 -9999 -9999 -9999 
-9999 -9999 -9999 1395.72 1247.28 1121.94 1016.95 926.27 968.91 1035.1 1037.35 1082.79 1157.76 1053.85 935 824.51 788.85 830.75 871.3 896.49 890.45 906.72 924.28 990.75 1014 1001.58 1084.44 1154.29 1225.55 1291.78 1391.75 1472.76 1451.48 1523.51 1670.99 1752.98 1807 1909.22 2033.85 2091.26 2023.94 2008.56 1947.01 1864.44 1946.8 2060.46 2138.5 2105.8 1959 1824.19 1818.45 1817.06 1877.69 1887.09 1869.56 1828.45 1930.46 2094.1 2090.46 1978.88 1865.61 1735.51 1580.21 1506.81 1456.91 1378.35 1355.08 1287.52 1140.66 1102.04 1015.78 992.81 1065.78 1156.51 1324.95 1232.83 1135.56 1051.41 919.82 799.75 748.9592 750.1273 836.8889 -9999 -9999 -9999 -9999 -9999 -9999 
-9999 -9999 1402.263 1403.3 1192.03 1099.23 1018.51 992.86 1093.73 1108.95 1113.04 1190.19 1207.09 1059.8 932.88 823.79 821.22 888.5 959.08 1044.57 1038.6 1027.29 1015.8 1100.95 1117.9 1071.31 1152.74 1230.13 1259.5 1328.05 1431.55 1519.26 1553.38 1576.6 1695.05 1802.17 1872.72 1978.8 2068.6 2129.41 2112.93 2019.01 1965.96 1920.53 1916.22 2050.85 2163.92 2104.66 1976.22 1881.56 1936.95 1931.33 2037.49 2041.58 1981.35 2012.76 2058.8 2090.39 2082.6 1988.26 1862.24 1718.76 1588.73 1490.52 1371.26 1261.95 1190.15 1122.56 1068.61 998.56 934.24 900.87 930.93 1034.37 1232.74 1271.74 1172.61 1068.42 967.55 853.64 762.56 707.53 793.9167 837.1905 -9999 -9999 -9999 -9999 -9999 
-9999 1337 1416.654 1375.76 1224.56 1124.02 1053.94 1087.95 1205.26 1260.1 1254.1 1291.86 1172.62 1031.75 915.92 839.06 869.92 963.75 1007.04 1098.15 1174.74 1177.02 1147.52 1183.26 1201.43 1158.78 1217.69 1292.72 1352.73 1393.31 1494.19 1576.95 1651.62 1678.15 1757.2 1858.81 1887.4 1928.89 1992.47 2077.95 2118.21 2080.52 2075.78 2070.31 1954.06 2024.43 2123.55 2203.19 2103.49 1984.93 2013.58 2019.61 2143.11 2142.33 2088.77 2017.04 1942.89 1955.48 2020.85 2000.53 1897.27 1778.68 1692.96 1601.1 1481.33 1423.15 1272.43 1114.34 975.57 907.4 888.64 847.03 817.21 949.45 1113.81 1123.11 1089.12 990.63 895.53 819.15 731.84 721.32 762.5757 803.4348 -9999 -9999 -9999 -9999 -9999 
-9999 1392.2 1462.489 1390.94 1250.6 1165.15 1145.85 1160.24 1296.43 1355.49 1345.63 1217.79 1068.61 934.37 860.91 830.71 908.13 1024.49 1094.46 1140.78 1211.06 1272.36 1284.91 1281.08 1312.68 1289.16 1306.07 1354.15 1429.44 1464.21 1542.99 1633.26 1737.51 1772.28 1756.05 1732.91 1712.82 1772.45 1868.33 2009.96 2142.94 2205.16 2192.1 2152.93 2055.03 1982.03 2074.2 2105.99 2151.09 2209.34 2206.64 2253.48 2205.39 2058.36 1947.06 1873.81 1802.87 1827.08 1905.53 1929.79 1939.27 1872.01 1787.96 1685.88 1576.29 1443.69 1282.94 1129.53 1036.17 1006.2 997.25 881.07 823.93 811.14 915.01 983.83 967.95 958.09 843.6 745.69 715.46 766.48 775.5091 -9999 -9999 -9999 -9999 -9999 -9999 
-9999 -9999 1518.492 1488.27 1346.6 1253.22 1287.02 1284.42 1328.09 1215.49 1186.8 1081.82 933.03 849.99 831.09 870.63 889.7 931.1 1039.98 1137.39 1223.54 1296.76 1359.88 1390.93 1425.19 1430.83 1405.24 1453.02 1505.28 1564.51 1592.97 1646.85 1688.94 1644.46 1558.69 1511.42 1560.61 1654.66 1734.04 1873.67 2013.13 2060.02 2179.56 2253.65 2201.55 2057.85 2033.75 2115.82 2206.45 2343.04 2341.57 2214.8 2095.43 1964.25 1835.12 1780.73 1717.8 1704.66 1761.9 1794.62 1885.22 1916.47 1819.77 1692.64 1537.07 1392.27 1254.1 1171.65 1174.81 1154.74 1090.71 968.11 887.47 819.37 793.84 840.08 813.6 819.76 817.61 712.32 708.3979 696.2727 675.5333 673.5 -9999 -9999 -9999 -9999 -9999 
-9999 1466 1496.3 1471.04 1429.27 1399.8 1419.24 1406.57 1359.33 1264.79 1137.22 972.19 935.68 942.09 913.46 911.36 1005.33 977.3 912.76 967.58 1090.61 1175.53 1229.33 1312.55 1417.22 1422.39 1357.57 1395.51 1457.9 1452.85 1410.79 1423.24 1427.73 1437.83 1385.1 1305.62 1338.01 1455.39 1589.42 1700.85 1786.85 1926.12 2052.73 2153.37 2238.26 2211.42 2175.09 2216.35 2330.69 2282.63 2177.7 2070.32 1960.75 1874.39 1791.95 1678.84 1649.04 1578.81 1603.38 1659.38 1793.66 1865.98 1825.45 1691.77 1550.24 1406.06 1291.5 1288.64 1260.65 1289.04 1185.74 1080.1 973.34 882.37 798.56 772.85 767.47 731.25 718.25 710.59 720.1613 767.8387 710.54 685.6044 784.0784 -9999 -9999 -9999 -9999 
-9999 1455.19 1474.12 1401.84 1300.49 1265.65 1328.02 1381.07 1295.1 1184.92 1079.12 1007.33 1066.13 1011.42 1005.03 947.91 985.93 1091.49 1015.91 1000.49 949.93 959.69 1047.53 1161.94 1165 1116.75 1121.54 1163.64 1206.05 1229.47 1177.1 1198.13 1214.49 1257.92 1230.67 1306.32 1420.49 1407.22 1469.5 1545.47 1654.41 1789.68 1913.64 2093.37 2297.51 2362.53 2372.05 2367.22 2268.02 2196.41 2080.14 2023.62 1929.76 1822.54 1718.17 1659.86 1572.9 1486.43 1476.33 1634.02 1750.64 1704.6 1709.22 1682.99 1563.52 1445.91 1435.1 1454.54 1431.15 1391.78 1261.58 1187.16 1096.7 1025.01 953.27 978.03 932.18 849.42 821.19 792.71 697.23 679.13 671.3 678.52 788.1064 -9999 -9999 -9999 -9999 
-9999 1487.177 1496.56 1387.41 1280.51 1203.71 1248.04 1244.85 1242.72 1246.49 1137.89 1144.14 1189.53 1093.97 1076.09 1064.62 978.2 1053.41 1107.11 1130.65 1099.06 1050.23 980.29 987.89 1007.17 1057.32 1078.42 1072.08 1090.78 1114.36 1184.93 1245.91 1210.82 1220.15 1320 1463.42 1635.28 1622.11 1664.34 1744.47 1737.45 1778.61 1971.17 2151.32 2291.68 2388.03 2442.12 2322.44 2152.78 2046.88 1988.43 1862.79 1878.55 1819.74 1736.11 1630.91 1535.37 1423.45 1414.3 1531.52 1568.19 1578.25 1476.48 1511.56 1539.4 1565.2 1554.18 1566.84 1567.16 1516.71 1430.56 1329.92 1273.04 1205.29 1141.26 1135.2 1094.51 1074.89 1010.45 877.88 728.9 664.41 690.9053 719.4235 781.3895 -9999 -9999 -9999 -9999 
1451.556 1483.77 1452.02 1389.42 1354.43 1281.69 1158.25 1135.47 1105.45 1131.96 1144 1174.57 1150.01 1098.04 1101.05 1048.23 1003.58 1100.22 1159.01 1186.98 1229.64 1211.22 1138.49 1095.61 1126.91 1173.41 1241.32 1230.16 1238.88 1280.82 1338.09 1462.38 1500.51 1441.9 1416.59 1553.12 1736.38 1840.87 1805.1 1898.53 1937.57 1955.77 2066.95 2219.19 2340.76 2439.05 2430.65 2265.51 2127.23 1995.23 1889.34 1762.43 1765.94 1787.35 1700.34 1630.22 1545.13 1427.08 1305.39 1299.51 1395.44 1410.84 1310.86 1342.47 1372.3 1383.38 1337.27 1448.15 1448.51 1460.04 1399.65 1284.18 1193.71 1115.12 1042.48 971.85 980.06 1002.25 997.43 942.38 810.54 722.78 710.7422 678.5949 650.8378 637.3684 785.5455 797 -9999 
1497.533 1468.89 1368.62 1267.64 1209.38 1254.79 1268.08 1193.66 1128.25 1068.2 1030.23 1017.18 1016.39 1026.56 1075.23 1029.06 1083.06 1175.58 1217.99 1234.7 1285.53 1317.94 1294.04 1218.91 1225.34 1247.3 1315.94 1327.95 1370.01 1431.25 1464.76 1576.3 1681.9 1698.38 1631.86 1636.55 1770.04 1937.86 2001.24 2064.06 2084.39 2082.32 2109.18 2108.01 2181.08 2320.86 2403.51 2218.24 2051.49 1934.23 1837.76 1676.3 1653.81 1755.3 1715.56 1638.94 1557.31 1437.77 1298.71 1186.63 1202.6 1197.65 1128.64 1255.42 1198.08 1150.27 1183.84 1265.41 1244.44 1255.08 1330.83 1376.48 1312.97 1244.61 1146.89 1076.22 941.28 879.78 827.96 874.64 854.06 803.76 783.04 776.2 750.64 698.9899 676.5757 730.05 -9999 
1416.217 1405.73 1321.83 1249.25 1180.69 1156.15 1196.27 1100.09 1091.95 1068.01 1019.45 1051.17 1038.75 1071.85 1142.01 1114.21 1162 1225.14 1288.16 1305.52 1332.51 1402.25 1438.2 1368.83 1327.76 1330.43 1368.11 1411.11 1487.63 1585.27 1609.49 1720.74 1778.62 1873.24 1861.54 1860.78 1928.25 1986.85 2026.92 2000.59 1921.61 1920.09 1916.86 1948.87 2050.57 2205.31 2311.25 2150.54 2010.04 1882.93 1783.71 1626.67 1528.7 1628.97 1663.14 1607.43 1558.56 1460.11 1343.2 1211.84 1104.05 969.35 1005.96 1194.34 1145.56 1006.29 1021.56 1135.65 1067.31 1040.22 1076.27 1208.84 1337.26 1383.25 1308.09 1167.38 1051.5 936.41 839.77 766.19 739.58 733.27 697.28 697.83 769.26 687.68 640.08 626.71 629.1025 
1378.345 1335.24 1220.47 1157.31 1140.83 1129.56 1100.94 1091.36 1147.96 1082.42 1049.74 1087.83 1112.79 1125.64 1134.75 1167.96 1246.38 1305.05 1368.69 1399.27 1386.22 1449.57 1511.18 1499.48 1461.2 1461.95 1447.1 1464.23 1568.34 1657.49 1708.79 1790.06 1900.68 1944.79 1955.98 1912.43 1905.99 1858.93 1862.7 1834.25 1770.16 1717.04 1714.62 1829 1983.45 2134.65 2266.01 2181.26 2049.54 1954.24 1846.25 1690.45 1486.93 1446.93 1507.95 1541.43 1514.62 1469.96 1334.09 1193.74 1056.15 923.51 913.1 1132.27 1181.1 1016.18 901.74 945.73 973.42 906.05 927.6 1045.2 1184.93 1345.98 1382.24 1240.5 1100.31 969.43 907.57 874.93 829.25 818.88 770.22 721.67 656.38 628.86 719.5789 717.9315 771.6572 
1351.619 1329.369 1265.75 1194.28 1165.09 1137.93 1164.2 1165.73 1198.27 1094.77 1108.25 1175.36 1181.64 1178.4 1232.74 1191.46 1258.73 1333.72 1349.15 1373.03 1420.84 1477.19 1538.48 1595.67 1555.26 1568.22 1555.35 1535.39 1582.42 1681.48 1742.98 1842.29 1886.76 1819.53 1789.84 1707.69 1715 1727.5 1676.26 1632.51 1564.81 1575.85 1722.25 1894.1 2044.64 2195.48 2161.02 2071.7 2010.36 1947.42 1849.82 1680.55 1491.64 1328.96 1316.31 1397.22 1396.14 1370.84 1308.98 1195.79 1077.74 920.3 885.8 1057.58 1195.72 1146.51 986.83 835.01 870.14 865 812.74 937.36 1103.83 1304.75 1414.72 1265.48 1134.83 1074.5 1008.78 1001.59 967.32 923.22 861.13 737.65 639.83 646.77 717.1124 800.7143 -9999 
-9999 1328.767 1295.1 1174.77 1173.52 1232.63 1237.1 1295.34 1244.53 1077.64 1131.1 1215.32 1207.76 1227.48 1253.52 1227.75 1250.59 1268.88 1301.32 1337.99 1414.23 1501.24 1583.01 1651.77 1690.64 1668.51 1738.5 1655.5 1608.03 1621.74 1697.23 1818.51 1773.27 1680.99 1655.8 1548.76 1495.75 1503.86 1469.53 1484.76 1572 1654.3 1771.48 1918.85 2067.11 2161.07 2055.94 1937.6 1903.34 1927.38 1820.29 1664.43 1493.47 1289.36 1121.38 1194.52 1215.75 1260.48 1215.35 1164.94 1080.99 929.94 828.68 924.75 1092.22 1067.24 996.96 926.84 798.09 806.18 759.92 887.75 1051.84 1190.86 1285.11 1338.2 1293.95 1190.67 1104.8 1068.32 971.55 830.28 752.33 639.72 659.74 728.7761 726.8438 810 -9999 
-9999 1334.26 1324.47 1213.13 1281.34 1340.61 1332.82 1369.43 1267.83 1124.92 1107.91 1187.3 1258.28 1279.58 1256.6 1279.96 1355.09 1380.86 1416.15 1426.34 1450.53 1517.22 1591.35 1668.93 1727.53 1746.92 1714.98 1542.16 1472.13 1526.54 1642.37 1622.49 1608.71 1515.14 1462.82 1399.14 1312.65 1358.2 1471.29 1598.63 1672.22 1821.19 1897.05 1989.75 2069.07 2054.64 1975.79 1866.55 1799.76 1831.53 1772.28 1592.62 1386.23 1209.27 1057.89 992.17 1002.54 1042.5 1051.79 1034.61 983.14 905.45 820.18 849.01 991.65 947.8 901.16 814.38 805.63 730.69 731.57 846.96 992.11 1058.16 1098.22 1163.82 1265.03 1197.26 1097.96 995.09 892.18 818.63 678.2 618.6 705.5814 745 -9999 -9999 -9999 
-9999 1360.756 1353.39 1299.5 1388.24 1458.23 1418.3 1383.43 1278.72 1210.49 1102.6 1169.46 1234.05 1306.25 1304.42 1346.61 1408.18 1471.6 1508.57 1511.03 1517.52 1549.28 1615.56 1693.9 1734.41 1622.96 1481.12 1427.26 1379.8 1442.92 1491.29 1423.22 1384.95 1322.67 1277.79 1257.26 1342.37 1530.78 1644.04 1739.94 1802.53 1905.64 2052.57 2122.89 2058.41 1992.41 1927.2 1794.69 1646.7 1670.39 1720.58 1590.59 1443.32 1304.88 1148.31 1026.04 927.31 894.14 868.05 868.79 828.57 839.97 779.84 836.16 923.85 838.76 786.99 727.85 706.61 714.62 689.11 810.26 932.36 891.25 943.68 964.5 1130.67 1184.93 1107.9 966.89 839.16 754.81 742.37 619.23 664.2065 713 -9999 -9999 -9999 
-9999 1402.741 1357.64 1355.09 1393.15 1456.784 1462.293 1440.798 1362.55 1310.99 1169.06 1130.97 1231.45 1327.7 1358.96 1401.99 1462.26 1532.83 1566.3 1580.87 1596.63 1637.54 1690.13 1652.46 1522.61 1459.73 1370.68 1341.84 1276.11 1240.88 1245.48 1227.93 1213.23 1289.87 1413.38 1441.58 1455.83 1574.02 1693.1 1809.52 1935.42 2030.84 2146.01 2101.88 1968.32 1855.85 1765.6 1712.4 1540.47 1524.92 1598.07 1495.7 1408.62 1384.66 1274.32 1185.02 1085 1055.56 954.09 890.74 955.69 982.82 874.57 786.39 778.58 746.56 750.82 757.79 859.76 851.87 732.58 688.19 730.37 753.78 798.16 830.16 1005.88 1076.16 1085.55 993.72 835.27 705.59 614.79 623.17 662.6531 732.3636 -9999 -9999 -9999 
-9999 1399.914 1381.068 1399.655 1427.889 1465 -9999 1457.077 1480.487 1396.16 1226.62 1154.1 1258.62 1359.04 1431.82 1450.25 1482.18 1562.31 1615.87 1661.21 1699.26 1697.39 1615.35 1492.05 1398.52 1302.47 1241.55 1183.76 1130.25 1142 1216.82 1300.09 1403.33 1495.13 1577.89 1647.3 1633.09 1711.96 1766.96 1829.31 1934.19 2018.6 2080.05 1996.67 1830.4 1713.64 1617.25 1565.86 1479.84 1346.36 1364.82 1238.59 1171.33 1150.25 1127.28 1036.64 1000.91 1136.39 1133.36 1090.16 1125.96 1093.31 990.03 875.13 777.17 830.22 836.83 921.5 985.18 980.55 866.39 793.6 758.23 661.69 661.41 710.9 854.03 907.94 923.36 909.95 832.04 680 601.4 681.1528 687.4783 -9999 -9999 -9999 -9999 
-9999 1399 1408.5 -9999 -9999 -9999 -9999 -9999 1445.591 1396.728 1289.09 1207.51 1283.33 1388.4 1479.57 1546.18 1575.54 1583.26 1652.68 1668.17 1661.53 1576.48 1389.45 1302.31 1230.72 1118.44 1094.67 1151.8 1213.25 1320 1452.29 1533.19 1615.82 1701.64 1754.69 1853.19 1846.57 1884.98 1949.77 1915.03 1930.41 1986.87 2077.83 2001.68 1811.1 1601.21 1463.74 1372.88 1312.68 1230.6 1170.29 1144.66 1139.02 1131.69 1110.04 1099.12 996.31 1007.96 1185.43 1298.58 1288.19 1195.63 1046.83 931.25 901.15 870.9 924.52 979.2 1103.72 1150.02 1070.13 958.16 815.14 806.4 783.11 665.15 672.27 700.29 712.05 689.93 820.25 727.63 625.34 613.7738 673.6 -9999 -9999 -9999 -9999 
-9999 -9999 -9999 -9999 -9999 -9999 -9999 -9999 -9999 1423.571 1397.342 1349.776 1317.28 1399.02 1502 1589.77 1640.09 1627.46 1582.25 1535.93 1562.83 1470.83 1313.18 1164.68 1061.07 1060.58 1230.48 1346.6 1442.14 1531.9 1657.31 1746.57 1822.79 1836.16 1854.75 1935.45 2010.64 2023.79 2054.42 2011.42 1954.98 2031.94 2112.01 1968.65 1727.98 1583.53 1447.82 1386.19 1386.11 1298.94 1269.96 1378.11 1392.53 1406.39 1311.12 1178.74 1066.43 951.74 1045.78 1209.37 1269.19 1244.65 1174.73 1100.65 1068.28 1016.47 994.96 1050.4 1188.46 1269.07 1116.43 982.53 896.04 964.4 878.26 748.77 699.29 730.3 678.71 638.75 810.74 841.96 746.16 618.14 622.6631 648.8 -9999 -9999 -9999 
-9999 -9999 -9999 -9999 -9999 -9999 -9999 -9999 -9999 -9999 -9999 1323.17 1321.55 1385.62 1482.31 1565.42 1602.56 1608.26 1488.79 1393.72 1422.18 1376.6 1251.79 1116.78 1038.93 1151.7 1241.07 1307.94 1371.92 1482.09 1567.36 1618.36 1696.42 1751.84 1797.16 1846.91 1891.68 1918.87 1992.34 2097.61 2140.31 2159.11 2171.94 2098.63 1947.96 1760.64 1669.7 1632.09 1505.17 1360.13 1442.34 1546.89 1534.39 1423.33 1299.15 1115.19 1029.66 1005.53 950.34 1029.27 1050.55 1078.11 1220.43 1287.23 1261.26 1190.44 1141.74 1177.78 1286.41 1347.92 1220.03 1131.35 1101.71 1060.52 894.45 846.36 886.41 888.79 729.27 655.13 748.7 823.03 702.64 594.92 641.78 652.0417 -9999 -9999 -9999 
-9999 -9999 -9999 -9999 -9999 -9999 -9999 -9999 -9999 -9999 1209.083 1220.49 1291.98 1372.3 1450.57 1538.41 1547.97 1508.5 1462.28 1254.26 1217.52 1260.24 1212.22 1072.98 1049.75 1224.4 1378.86 1455.1 1485.11 1516.66 1586.54 1677.51 1778.56 1874.46 1918.74 1958.1 2008.39 2058.11 2150.3 2265.88 2341.12 2391.48 2399.74 2326.27 2199.72 2072.7 1938.51 1785.36 1583.88 1505.83 1583.35 1614.39 1400.87 1254.34 1201.95 1162.28 1260.07 1159.19 1002.52 908.22 899.84 905.25 1031.58 1183.88 1319.27 1365.18 1381.18 1370.74 1449.99 1471.88 1378.81 1295.22 1264.74 1161.59 1046.35 1074.46 1052.33 910.88 816.45 710.74 645.7 702.47 654.34 595.73 627.95 616.5714 -9999 -9999 -9999 
-9999 -9999 -9999 -9999 -9999 -9999 -9999 -9999 -9999 1150.333 1150.244 1186.03 1280.33 1355.6 1436.69 1505.29 1492.55 1383.69 1314.47 1190.07 1066.43 1116.36 1137.39 1014.82 1064.48 1181.63 1229.66 1345.04 1428.39 1488.53 1590.02 1646.82 1711.26 1759.88 1833.24 1940.45 2049.63 2156.49 2273.05 2388.34 2452.43 2504.01 2444.87 2342.16 2236.73 2129.38 2017.5 1915.34 1791.55 1752.36 1750.64 1597.9 1391.3 1372.88 1346.24 1277.25 1377.78 1298.31 1157.53 1068.86 1044.8 933.73 883.58 985.24 1176.26 1299.64 1419.75 1557.5 1604.34 1626.29 1560.14 1483.28 1379.61 1280.45 1208.49 1129.39 1037.55 925.08 825.68 721.8 608 611.95 588.71 626.09 584.5517 580 -9999 -9999 -9999 
-9999 -9999 -9999 -9999 -9999 -9999 -9999 -9999 -9999 -9999 1094.303 1170.77 1240.32 1303.11 1361.61 1402.06 1406.49 1337.67 1219.77 1068.87 982.24 993.01 1002.21 998.33 1057.79 1109.14 1193.51 1250.57 1295.25 1403.28 1440.23 1460.3 1526.08 1568.25 1664.68 1827.12 1982.91 2123.61 2275.98 2383.13 2480.39 2445.34 2275.9 2205.67 2180.83 2119.1 1981.79 1936.67 2031.61 1983.07 1795.77 1605.11 1539.3 1521.88 1448.27 1473.9 1499.65 1485.37 1375.18 1298.47 1236.12 1064.28 907.73 879.69 1026.54 1105.49 1284.33 1358.3 1521.05 1588.84 1495.91 1387.78 1267.67 1142.56 1080.34 1045.85 986.68 899.87 845.08 762.58 681.12 620.6 602.08 664.9875 -9999 -9999 -9999 -9999 -9999 
-9999 -9999 -9999 -9999 -9999 -9999 -9999 -9999 -9999 -9999 1069.662 1113.814 1154.67 1201.63 1249.39 1329.48 1354.73 1276.49 1215.18 1051.45 946.59 946.08 1008.46 1065.22 1155.51 1260.72 1338.86 1373.99 1422.72 1490.97 1535.74 1572.98 1599.42 1668.96 1755.06 1868.08 1934.04 2047.56 2176.52 2338.77 2480.85 2363.86 2213.57 2111.3 1999.94 1981.9 1887.02 1841.05 1990.37 2025.56 1884.23 1778.8 1730.79 1666.79 1563.32 1617.44 1641.84 1531.79 1427.54 1338.48 1223.26 1092.95 979.12 858.42 872.55 1009.79 1084.14 1243 1370.54 1371.17 1373.11 1238.54 1142.12 994.21 928.84 898.54 880.92 812.88 738 648.26 585.7 623.7629 657.2742 651.5217 -9999 -9999 -9999 -9999 -9999 
-9999 -9999 -9999 -9999 -9999 -9999 -9999 -9999 -9999 -9999 -9999 1074.818 1129.609 1171.57 1230.56 1289.41 1313.71 1243.59 1190.22 1053.67 919.29 961.42 1055.44 1196.5 1254.6 1228.67 1287.5 1389.97 1501.36 1618.93 1740.76 1787.18 1887.81 1969.07 2011.32 2108.13 2148.3 2173.64 2311.87 2450.07 2474.94 2297.35 2124.11 1988 1831.49 1797.23 1772.28 1781.26 1970.83 1989.43 1942.83 1918.79 1891.95 1802.1 1760.11 1765.39 1651.86 1555.58 1507.76 1374.81 1212.53 1036.48 1015.51 940.07 835.5 890.65 1040.93 1117.13 1149.58 1171.5 1263.81 1131 994.11 868.36 812.87 860.96 753.05 688.63 628.69 567.75 635.7629 705.4722 -9999 -9999 -9999 -9999 -9999 -9999 -9999 
-9999 -9999 -9999 -9999 -9999 -9999 -9999 -9999 -9999 -9999 -9999 -9999 1105.267 1118.95 1184.14 1232.63 1211.6 1201.12 1054.31 917.98 892.58 999.61 1108.16 1210.53 1314.77 1391.37 1303.96 1425.41 1538.58 1648.67 1770.71 1888.35 1962.04 2019.19 2111.01 2221.98 2308.26 2305.08 2350.35 2405.62 2349.42 2203.69 2100.21 1985.2 1822.07 1721.7 1675.73 1827.67 1987.39 1888.34 1814.31 1797.17 1767.59 1891.94 1906.5 1834.49 1749.27 1657.16 1467.04 1318.71 1173.19 1134.34 1185.82 1062.83 917.19 800.23 842.34 920.52 968.52 998.06 1081.71 1108.8 992.91 838.97 728.23 733.64 695.35 580.47 571.31 638.6556 687.2222 -9999 -9999 -9999 -9999 -9999 -9999 -9999 -9999 
-9999 -9999 -9999 -9999 -9999 -9999 -9999 -9999 -9999 -9999 -9999 -9999 -9999 1088.985 1152.456 1159.303 1110.98 1084.77 948.92 886.23 958.78 1038.1 1150.19 1261.45 1393.12 1477.5 1468.93 1458 1533.96 1637.89 1755.82 1925.65 2044.7 2124.19 2184.99 2233.75 2198.89 2137.98 2174.4 2253.11 2165.91 2047.77 2020.05 1930.71 1881.08 1788.94 1667.31 1776.08 1941.38 1866.72 1733.34 1635.31 1624.14 1763.06 1827.51 1843.7 1837.54 1661.58 1508.78 1418.56 1348.9 1321.32 1316.62 1149.43 997.52 921.08 805.22 739.63 758.67 812.13 876.87 913.4 1021.64 917.42 796.97 677.32 620.75 551.39 607.647 750.3333 -9999 -9999 -9999 -9999 -9999 -9999 -9999 -9999 -9999 
-9999 -9999 -9999 -9999 -9999 -9999 -9999 -9999 -9999 -9999 -9999 -9999 -9999 -9999 -9999 1041 998.129 918.75 894.43 924.94 1016.64 1086.09 1161.84 1279.87 1377.29 1460.35 1550.08 1628.96 1689.92 1782.4 1839.51 1969.69 2064.67 2106.4 2088.8 2057.58 2002.4 1976.65 2034.01 2120.25 2104.89 2066.6 1970.84 1813.04 1728.43 1683.72 1659.19 1788.13 1923.58 1836.65 1702.65 1553.64 1514.21 1655.99 1713.88 1702.49 1723.7 1692.91 1645.98 1552.68 1459.16 1492.68 1388.16 1201.26 1186.22 1097.99 890.59 801.22 784.48 719 683.36 827.73 977.02 947.58 810.39 698.11 587.81 571.15 675.4265 -9999 -9999 -9999 -9999 -9999 -9999 -9999 -9999 -9999 -9999 
-9999 -9999 -9999 -9999 -9999 -9999 -9999 -9999 -9999 -9999 -9999 -9999 -9999 -9999 -9999 935.42 861.82 871.95 890.31 952.58 1006.24 1078.72 1160.49 1237.75 1314.13 1405.08 1504.15 1615.24 1746.4 1855.43 1949.47 2017.52 2022.44 1933.06 1882.77 1925.54 1896.35 1870.65 1957.07 2027.95 1957.26 1929.7 1926.32 1777.4 1642.52 1614.2 1727.42 1884.07 1946.54 1817.61 1686.1 1544.72 1415.44 1508.11 1583.72 1589.75 1557.02 1592.04 1703.33 1675.61 1660.55 1578.63 1435.64 1432.84 1310.04 1145.68 1087.81 1017.37 934.11 819.07 649.87 703.06 863.17 895.24 764.2 628.04 559.12 624.9744 748.8333 -9999 -9999 -9999 -9999 -9999 -9999 -9999 -9999 -9999 -9999 
-9999 -9999 -9999 -9999 -9999 -9999 -9999 -9999 -9999 -9999 -9999 -9999 875.9811 863.9881 854.5567 851.71 896.58 961.93 1000.75 1108.78 1171.85 1224.47 1259.46 1384.6 1409.13 1517.41 1612.67 1701.5 1793.85 1930.76 1978.76 1907.54 1796.38 1728.37 1734.51 1806.07 1771.19 1823.71 1934.53 2006.64 1953.87 1823.23 1787.98 1705.36 1605.65 1687.51 1813.15 1927.05 1934.7 1809.95 1661.07 1541.76 1470.06 1376.28 1462.56 1473.45 1390.87 1475.8 1602.8 1572.13 1612.96 1656.53 1591.24 1526.92 1399.75 1324.32 1199.88 1061.78 933.53 798.53 689.88 616.38 764.07 864.97 750.55 627.16 543.18 562.12 541.4146 552 543.3333 -9999 -9999 -9999 -9999 -9999 -9999 -9999 -9999 
-9999 -9999 -9999 -9999 -9999 -9999 -9999 -9999 -9999 -9999 -9999 -9999 819.0492 863.55 920.55 950.65 1011.49 1063.58 1083.52 1155.46 1254.09 1336.77 1375.13 1449.41 1539.17 1638.29 1742.23 1834.11 1908.72 1885.17 1797.54 1693.81 1657.8 1608.43 1616.09 1627.43 1690.65 1816.39 1902.91 1975.81 1910.59 1835.39 1732.37 1612.28 1607.78 1738.67 1864.31 1835.53 1829.34 1805.9 1749.47 1692.41 1540.69 1387.57 1347.11 1358 1274.96 1413.91 1518.33 1401.24 1455.86 1568.57 1540.16 1494.39 1442.46 1322.37 1220.73 1101.74 978.08 906.29 794.57 635.62 638.32 794.21 752.66 653.75 597.74 624.58 543.24 537.73 531.175 -9999 -9999 -9999 -9999 -9999 -9999 -9999 -9999 
-9999 -9999 -9999 -9999 -9999 -9999 -9999 -9999 -9999 -9999 -9999 -9999 905.9333 938.7979 1000.82 1065.26 1138.57 1183.5 1206.07 1233.88 1309.03 1394.76 1475.47 1535.99 1620.68 1715.51 1793.4 1868.93 1830.91 1729.52 1669.18 1603.35 1532.43 1527.07 1512.77 1640.95 1735.95 1823.86 1915.58 1939.27 1853.14 1751.57 1658.93 1579.34 1629.54 1765.61 1782.31 1753.66 1690.24 1744.31 1809.46 1691.3 1595.14 1504.8 1350.54 1242.77 1186.33 1278.87 1370.04 1250.07 1317.65 1400.66 1425.88 1338.68 1294.45 1283.6 1230.12 1189.05 1107.06 987.79 853.9 720.87 595.94 714.56 779.99 704.1 631.12 568.44 539.75 546.6316 -9999 -9999 -9999 -9999 -9999 -9999 -9999 -9999 -9999 
-9999 -9999 -9999 -9999 -9999 -9999 -9999 -9999 -9999 -9999 -9999 -9999 -9999 925.9512 996.38 1095.57 1191.1 1282.22 1329.63 1387.86 1434.54 1483.35 1530.8 1612.56 1721.69 1799.31 1871.93 1833.56 1674.18 1556.64 1536.23 1529.61 1426.57 1396.1 1549.3 1674.39 1735.92 1796.23 1852.82 1881.39 1826.68 1722.59 1598.68 1556.24 1691.95 1724.68 1621.78 1583.4 1556.96 1628.36 1693.61 1715 1702.49 1613.52 1494.12 1340.87 1161.39 1095.67 1202.53 1130.3 1187.6 1305.46 1246.85 1191.15 1172.48 1220.17 1169.6 1095.74 1143.48 1038.17 893.33 746.93 622.23 582.38 683.93 662.93 586.58 540.43 558.1594 -9999 -9999 -9999 -9999 -9999 -9999 -9999 -9999 -9999 -9999 
-9999 -9999 -9999 -9999 -9999 -9999 -9999 -9999 -9999 -9999 -9999 -9999 -9999 990.0825 1088.9 1185.28 1264.93 1322.65 1384.09 1427.39 1482.69 1569.67 1627.58 1700.8 1798.13 1882.73 1911.12 1772 1626.56 1465.06 1387 1380.4 1301.34 1433.48 1554.21 1624 1666.3 1710.25 1792.11 1886.48 1863.17 1728.2 1594.74 1538.12 1634.75 1591.42 1502.94 1427.11 1465.43 1536.31 1462.11 1502.36 1554.97 1599.61 1542.29 1378.91 1235.36 1082.18 1026.5 1002.39 1053.49 1114.62 1059.68 1037.53 1058.05 1157.67 1117.81 968.51 995.86 1004.35 926.35 836.06 698.74 577.46 566.72 568.34 530.8 554.7692 566.75 -9999 -9999 -9999 -9999 -9999 -9999 -9999 -9999 -9999 -9999 
-9999 -9999 -9999 -9999 -9999 -9999 -9999 -9999 -9999 -9999 -9999 -9999 1120.35 1094.041 1141.93 1218.36 1296.6 1382.91 1439.88 1516.16 1596.62 1664.61 1718.81 1760 1830.71 1887.08 1811.6 1603.69 1458.81 1400.76 1253.11 1236.15 1300.53 1405.22 1494.18 1543.81 1613.33 1734.65 1852.39 1946.21 1874.6 1755.48 1628.68 1495.22 1526.33 1423.48 1334.12 1244.37 1301.06 1378.3 1278.62 1279.27 1347.76 1413.7 1473.07 1455.81 1322.69 1172.55 1029.79 894.55 887.12 921.03 902.1 970.05 1079.23 1110.56 1083.32 952.93 843.09 883.71 847.79 778.27 647.95 542.68 523.96 531.84 548.5263 533 -9999 -9999 -9999 -9999 -9999 -9999 -9999 -9999 -9999 -9999 -9999 
-9999 -9999 -9999 -9999 -9999 -9999 -9999 -9999 -9999 -9999 -9999 -9999 1084.949 1167.13 1194.88 1276.61 1349.89 1395.43 1446.87 1480.65 1565.99 1658.1 1752.88 1849.1 1904.88 1806.19 1594.09 1416.54 1279.6 1227.33 1174.74 1269.21 1373.59 1491.6 1583.76 1605.23 1642.16 1728.63 1824.3 1919.54 1847.14 1708.76 1581.74 1500.52 1461.02 1440.49 1372.2 1226.08 1115.07 1132.83 1115.66 1100.45 1180.02 1264.47 1256.69 1342.21 1258.07 1191.62 1032.84 873.82 748.54 784.14 871.36 1002.78 1056.88 1031.27 1079.21 1001.69 812.5 736.05 756.92 706.33 589.32 524.58 543.4 558.9259 -9999 -9999 -9999 -9999 -9999 -9999 -9999 -9999 -9999 -9999 -9999 -9999 -9999 
-9999 -9999 -9999 -9999 -9999 -9999 -9999 -9999 -9999 -9999 -9999 996.1 1035.854 1139.49 1225.22 1262.76 1328.78 1400 1486.23 1557.2 1603.29 1680.51 1769.11 1867.17 1950.49 1793.62 1542.95 1372.18 1254.93 1127.87 1197.07 1293.19 1389.6 1491.21 1499.1 1512.1 1596.38 1721.62 1840.87 1900.58 1876.6 1758.41 1643.88 1626.33 1585.26 1609.19 1508.75 1286.17 1117.9 1058.2 993.78 910.81 971.75 1110.02 1083.58 1155.41 1097.04 1020.75 949.77 914.04 836.8 711.02 770 879.34 939.43 932.74 969.42 945.48 820.29 701.67 660.38 597.65 561.79 513.1398 571.3 -9999 -9999 -9999 -9999 -9999 -9999 -9999 -9999 -9999 -9999 -9999 -9999 -9999 -9999 
-9999 -9999 -9999 -9999 -9999 -9999 -9999 -9999 -9999 -9999 -9999 989.7692 1007.216 1084.72 1179.55 1254.63 1336.94 1408.61 1459.5 1556.88 1625.8 1671.76 1758.52 1857.96 1927.54 1847.12 1694.09 1474.48 1251.95 1105.87 1195.61 1298.68 1346.31 1371.76 1455.71 1568.97 1664.02 1765.65 1867.99 1952.63 1936.16 1863.71 1775.73 1768.19 1735.09 1669.59 1502.75 1346.23 1343.74 1245.04 1108.7 992.93 835.14 899.2 913.09 951.28 945.5 846.06 853.52 924.26 908.71 766.58 655.64 737.42 820.34 817.12 885.39 796.77 731.63 685.92 642.1 596.73 526.37 531.1515 -9999 -9999 -9999 -9999 -9999 -9999 -9999 -9999 -9999 -9999 -9999 -9999 -9999 -9999 -9999 
-9999 -9999 -9999 -9999 -9999 -9999 -9999 -9999 -9999 -9999 -9999 -9999 1027.1 1042.87 1119.97 1200.21 1282.91 1392.65 1466.51 1510.09 1564.05 1641.43 1688.36 1766.6 1809.85 1665.13 1505.29 1343.31 1246.98 1122.29 1126.77 1190.63 1217.11 1324.43 1407.75 1522.39 1660.55 1801.09 1927.73 1991.94 1990.98 1963.23 1942.56 1919.13 1819.2 1668.91 1546.43 1559.22 1410.38 1249.86 1091.82 957.48 840.4 793.6 753.8 749.29 755.01 724.37 716.57 743.47 742.84 715.32 612.31 637.36 686.63 718.37 762.26 662.56 648.87 567.11 535.08 514.49 540.3478 579.5417 -9999 -9999 -9999 -9999 -9999 -9999 -9999 -9999 -9999 -9999 -9999 -9999 -9999 -9999 -9999 
-9999 -9999 -9999 -9999 -9999 -9999 -9999 -9999 -9999 -9999 -9999 -9999 1063.429 1033.031 1077.99 1145.49 1226.46 1323.98 1375.42 1400.86 1472.09 1548.51 1601.06 1708.07 1784.66 1680.42 1553.72 1448.97 1335.64 1151.49 1049.49 1114.7 1218.79 1357.12 1487.3 1634.63 1746.06 1864.63 1928.3 1998.46 2065.21 2051.4 2022.12 1907.41 1801.36 1703.98 1592.48 1487.57 1312.3 1118.71 1036.35 1024.1 1008.82 948.13 826.66 873.13 820.15 801.81 796.36 708.76 674.89 660.02 722.88 704.58 624.61 636.1 656.86 591.44 550.06 556.52 562.06 514.38 568 -9999 -9999 -9999 -9999 -9999 -9999 -9999 -9999 -9999 -9999 -9999 -9999 -9999 -9999 -9999 -9999 
-9999 -9999 -9999 -9999 -9999 -9999 -9999 -9999 -9999 -9999 -9999 -9999 -9999 983.5 1000.53 1052.35 1148.774 1255.92 1254.322 1304.234 1387.63 1446.72 1517.85 1616.49 1689.71 1587.88 1435.28 1279.96 1146.7 1069.43 1050.35 1171.62 1299.2 1422.39 1486.03 1576.23 1683.1 1786.4 1908.94 2006.93 2085.19 2060.28 1991.83 1880.26 1753.03 1618.91 1459.86 1321.48 1243.28 1222.87 1262.64 1212.78 1096.73 956.24 957.28 1023.3 1063.74 1014.31 1007.34 915.18 877.74 911.58 949.54 868.48 723.89 593.85 566.51 584.88 631.7 703.1212 650.25 524.0204 503.1429 -9999 -9999 -9999 -9999 -9999 -9999 -9999 -9999 -9999 -9999 -9999 -9999 -9999 -9999 -9999 -9999 
-9999 -9999 -9999 -9999 -9999 -9999 -9999 -9999 -9999 -9999 -9999 -9999 -9999 -9999 938.871 979.18 1071.054 -9999 -9999 1230.538 1258.011 1292.44 1376.37 1512.07 1576.12 1528.34 1399.54 1249.1 1092.46 1001.61 1130.86 1202.14 1288.71 1372.32 1476.78 1586.5 1708.15 1838.32 1944.23 2011.16 2091.16 2102.09 2006.41 1869.62 1685.22 1538.73 1430.49 1377.66 1394.69 1464.25 1404.9 1291.69 1176.7 1147.76 1135.09 1234.59 1243.45 1176.71 1131.17 1075.19 1035.25 1004.38 962.58 889.89 753.62 631.48 632.88 750.25 787.9767 745.6957 -9999 509.25 491 -9999 -9999 -9999 -9999 -9999 -9999 -9999 -9999 -9999 -9999 -9999 -9999 -9999 -9999 -9999 -9999 
-9999 -9999 -9999 -9999 -9999 -9999 -9999 -9999 -9999 -9999 -9999 -9999 -9999 -9999 870.6667 926.77 1013.441 -9999 -9999 -9999 1172.292 1266.24 1384.31 1440.35 1383.18 1306 1311.43 1194.06 1025.2 986.43 1112.76 1254.39 1394.95 1483.64 1545.82 1645.01 1733.84 1836.04 1940.96 2015.79 2045.61 2029.27 2011.45 1893.61 1753.84 1635.34 1547.77 1494.92 1554.74 1566.13 1444.72 1337.48 1350.99 1372.21 1313.13 1321.25 1194.17 1074.51 1041.94 1004.45 985.32 917.6 900.47 875.66 814.97 798.02 792.35 809.1772 802.5 -9999 -9999 -9999 -9999 -9999 -9999 -9999 -9999 -9999 -9999 -9999 -9999 -9999 -9999 -9999 -9999 -9999 -9999 -9999 -9999 
-9999 -9999 -9999 -9999 -9999 -9999 -9999 -9999 -9999 -9999 -9999 -9999 -9999 -9999 831 893.4 965.5 -9999 -9999 -9999 1218.837 1292.66 1269.36 1201.5 1161.59 1103.82 1125.04 1136.85 1005.11 984.9 1093.14 1235.75 1372.22 1424 1516.77 1633.37 1749.1 1814.49 1855.25 1896.22 1921.56 1966.17 2017.97 1941.12 1840.34 1732.51 1724.23 1665.83 1640.43 1564.43 1472.78 1427.2 1378.65 1307.62 1262.22 1203.29 1128.63 1016.31 940.86 929.58 882.89 855.14 833.76 790.92 762.39 774.08 771.98 737.0909 -9999 -9999 -9999 -9999 -9999 -9999 -9999 -9999 -9999 -9999 -9999 -9999 -9999 -9999 -9999 -9999 -9999 -9999 -9999 -9999 -9999 
-9999 -9999 -9999 -9999 -9999 -9999 -9999 -9999 -9999 -9999 -9999 -9999 -9999 -9999 -9999 -9999 -9999 -9999 -9999 -9999 1226.5 1275.05 1237.71 1085.7 981.88 935.88 977.25 1066.01 1006.19 921.69 1041.75 1199.35 1273.87 1345.49 1478.93 1610.65 1677.56 1668.97 1744.68 1801.14 1885.88 2035.02 1959.95 1884.97 1834.09 1807.17 1764.65 1727.26 1616.26 1503.21 1407.14 1343.54 1299.69 1247.05 1158.87 1115.71 1044.41 963.11 882.8 838.16 798.46 752.8 762.5 670.16 670.13 696.1 732.5555 -9999 -9999 -9999 -9999 -9999 -9999 -9999 -9999 -9999 -9999 -9999 -9999 -9999 -9999 -9999 -9999 -9999 -9999 -9999 -9999 -9999 -9999 
-9999 -9999 -9999 -9999 -9999 -9999 -9999 -9999 -9999 -9999 -9999 -9999 -9999 -9999 -9999 -9999 -9999 -9999 -9999 -9999 1195.103 1240.57 1175.07 1042.52 929.32 855.19 845.97 866.31 850.75 917.54 1027.43 1142.68 1276.59 1376.75 1442 1499.98 1575.78 1708.79 1842.75 1913.27 1970.56 2010.67 1897.42 1761 1701.81 1680.03 1674.07 1702.75 1627.21 1544.37 1467.93 1357.59 1230.16 1124.3 1067.96 1012.17 949.11 874.14 810.26 756.59 697.36 645.99 623.9 596.48 571.99 595.3438 666 -9999 -9999 -9999 -9999 -9999 -9999 -9999 -9999 -9999 -9999 -9999 -9999 -9999 -9999 -9999 -9999 -9999 -9999 -9999 -9999 -9999 -9999 
-9999 -9999 -9999 -9999 -9999 -9999 -9999 -9999 -9999 -9999 -9999 -9999 -9999 -9999 -9999 -9999 -9999 -9999 -9999 -9999 -9999 1167.947 1183.03 1031.77 883.41 782.87 863.52 944.7 948.15 906.55 993.23 1092.05 1175.91 1287.94 1390.2 1529.31 1672.29 1780.61 1849.06 1914.08 1990.96 1908.97 1838.61 1764.71 1676.77 1565.46 1565.3 1551.07 1508.93 1473.97 1431.88 1356.05 1246.08 1173.75 1101.79 1001.9 886.64 804.89 743.95 700.18 670.73 681.59 660.04 696.52 666.125 558.25 -9999 -9999 -9999 -9999 -9999 -9999 -9999 -9999 -9999 -9999 -9999 -9999 -9999 -9999 -9999 -9999 -9999 -9999 -9999 -9999 -9999 -9999 -9999 
-9999 -9999 -9999 -9999 -9999 -9999 -9999 -9999 -9999 -9999 -9999 -9999 -9999 -9999 -9999 -9999 -9999 -9999 -9999 -9999 -9999 1138.966 1085.32 975.19 848.96 759.99 857.93 997.66 1089.29 1082.64 1090.19 1184.81 1299.78 1390.36 1516.53 1632.4 1722.74 1788.44 1851.63 1918.65 1970.15 1890.1 1777.33 1684.05 1608.06 1528.94 1446.26 1363.35 1370.26 1384.89 1359.36 1292.91 1212.97 1107.79 1064.54 1003.53 916.9 851.92 827.84 822.64 818.43 794.9268 797.8276 805.4445 -9999 -9999 -9999 -9999 -9999 -9999 -9999 -9999 -9999 -9999 -9999 -9999 -9999 -9999 -9999 -9999 -9999 -9999 -9999 -9999 -9999 -9999 -9999 -9999 -9999 
-9999 -9999 -9999 -9999 -9999 -9999 -9999 -9999 -9999 -9999 -9999 -9999 -9999 -9999 -9999 -9999 -9999 -9999 -9999 -9999 -9999 -9999 872.0541 809.79 768.13 786.22 872.68 966.9 1092.95 1210.44 1306.39 1324.92 1351.68 1437.25 1510.53 1637.29 1713.98 1789.5 1875.68 1951.04 1935.59 1906.77 1847.57 1744.91 1648.02 1528.46 1411.1 1344.81 1224.74 1214.72 1260.58 1201.9 1173.29 1162.62 1155.98 1041.37 974.8 973.2 946.25 894.8929 875.2857 -9999 -9999 -9999 -9999 -9999 -9999 -9999 -9999 -9999 -9999 -9999 -9999 -9999 -9999 -9999 -9999 -9999 -9999 -9999 -9999 -9999 -9999 -9999 -9999 -9999 -9999 -9999 -9999 
-9999 -9999 -9999 -9999 -9999 -9999 -9999 -9999 -9999 -9999 -9999 -9999 -9999 -9999 -9999 -9999 -9999 -9999 -9999 -9999 -9999 -9999 793.6667 831.67 882.2 922.56 947.11 979.48 1070.29 1204.7 1366.09 1503.87 1562.23 1606.91 1645.48 1705.86 1762.41 1839.47 1875.14 1826.96 1825.31 1819.94 1787.71 1786.32 1672.66 1555.33 1437.01 1313.05 1216.44 1090.72 1091 1097.45 1061.11 1101.52 1102.05 1066.695 -9999 -9999 -9999 -9999 -9999 -9999 -9999 -9999 -9999 -9999 -9999 -9999 -9999 -9999 -9999 -9999 -9999 -9999 -9999 -9999 -9999 -9999 -9999 -9999 -9999 -9999 -9999 -9999 -9999 -9999 -9999 -9999 -9999 
-9999 -9999 -9999 -9999 -9999 -9999 -9999 -9999 -9999 -9999 -9999 -9999 -9999 -9999 -9999 -9999 -9999 -9999 -9999 -9999 -9999 884.2558 958.5408 1075.63 1113.43 1141.49 1116.88 1150.74 1200.72 1288.44 1423.42 1582.96 1705.64 1785.86 1825.78 1848.25 1882.24 1849.76 1823.11 1759.39 1740.23 1745.07 1700.19 1751.98 1749.98 1637.04 1497.81 1330.64 1211.68 1104.75 965.83 918.88 928.73 1008.97 982.54 935.6744 -9999 -9999 -9999 -9999 -9999 -9999 -9999 -9999 -9999 -9999 -9999 -9999 -9999 -9999 -9999 -9999 -9999 -9999 -9999 -9999 -9999 -9999 -9999 -9999 -9999 -9999 -9999 -9999 -9999 -9999 -9999 -9999 -9999 
-9999 -9999 -9999 -9999 -9999 -9999 -9999 -9999 -9999 -9999 -9999 -9999 -9999 -9999 -9999 -9999 -9999 -9999 -9999 -9999 -9999 999.4865 1088.15 1209.22 1331.41 1384.91 1404.51 1389.35 1426.78 1460.77 1538.75 1617.46 1754.16 1879.25 1959.13 1947.51 1870.81 1749.56 1753.56 1725.7 1671.61 1661.63 1645.14 1676.03 1678.34 1712.64 1613.38 1470.54 1344.41 1211.04 1076.99 963.11 850.59 874.58 859 844.4762 -9999 -9999 -9999 -9999 -9999 -9999 -9999 -9999 -9999 -9999 -9999 -9999 -9999 -9999 -9999 -9999 -9999 -9999 -9999 -9999 -9999 -9999 -9999 -9999 -9999 -9999 -9999 -9999 -9999 -9999 -9999 -9999 -9999 
-9999 -9999 -9999 -9999 -9999 -9999 -9999 -9999 -9999 -9999 -9999 -9999 -9999 -9999 -9999 -9999 -9999 -9999 -9999 -9999 -9999 1042.148 1116.75 1208.19 1304.96 1419.18 1522.1 1562.39 1564.49 1532.5 1555.91 1682.46 1795.34 1885.79 1873.66 1808.64 1711.96 1646.56 1622.65 1630.29 1572.47 1544.53 1568.13 1568.16 1627.65 1713.57 1673.97 1509.29 1384.24 1303.26 1194.46 1088.61 968.53 836.3146 765.4375 -9999 -9999 -9999 -9999 -9999 -9999 -9999 -9999 -9999 -9999 -9999 -9999 -9999 -9999 -9999 -9999 -9999 -9999 -9999 -9999 -9999 -9999 -9999 -9999 -9999 -9999 -9999 -9999 -9999 -9999 -9999 -9999 -9999 -9999 
-9999 -9999 -9999 -9999 -9999 -9999 -9999 -9999 -9999 -9999 -9999 -9999 -9999 -9999 -9999 -9999 -9999 -9999 -9999 -9999 -9999 1046.05 1132.94 1259.44 1338.71 1419.9 1484.51 1467.35 1439.38 1417.7 1517.8 1634.31 1738.06 1803.45 1800.33 1763.87 1682.91 1603.37 1533.97 1534.91 1493.08 1449.71 1503.78 1494.67 1554.13 1613.49 1651.56 1602.69 1500.25 1404.61 1253.58 1159.56 1111.32 1050.25 1049.667 -9999 -9999 -9999 -9999 -9999 -9999 -9999 -9999 -9999 -9999 -9999 -9999 -9999 -9999 -9999 -9999 -9999 -9999 -9999 -9999 -9999 -9999 -9999 -9999 -9999 -9999 -9999 -9999 -9999 -9999 -9999 -9999 -9999 -9999 
-9999 -9999 -9999 -9999 -9999 -9999 -9999 -9999 -9999 -9999 -9999 -9999 -9999 -9999 -9999 -9999 -9999 -9999 -9999 -9999 -9999 1204.634 1178.76 1268.27 1370.21 1348.61 1361.11 1294.96 1294.09 1386.11 1524.4 1614.03 1706.2 1746.42 1708.83 1660 1608.37 1554.08 1514.63 1463.6 1445.22 1402.51 1413.2 1431.62 1454.12 1533.99 1577.44 1625.04 1588.07 1495.64 1415.27 1339.92 1206.81 1099.24 1039.885 -9999 -9999 -9999 -9999 -9999 -9999 -9999 -9999 -9999 -9999 -9999 -9999 -9999 -9999 -9999 -9999 -9999 -9999 -9999 -9999 -9999 -9999 -9999 -9999 -9999 -9999 -9999 -9999 -9999 -9999 -9999 -9999 -9999 -9999 
-9999 -9999 -9999 -9999 -9999 -9999 -9999 -9999 -9999 -9999 -9999 -9999 -9999 -9999 -9999 -9999 -9999 -9999 -9999 -9999 1311.333 1374.691 1353.68 1377.37 1358.91 1254.66 1215.05 1212.11 1292.32 1404.9 1483.26 1561.4 1695.13 1752.52 1668.23 1596.91 1568.72 1553.34 1577.62 1546.09 1486.02 1405.11 1385.4 1385.51 1429.05 1476.58 1486.43 1536.09 1562.41 1545.08 1490.4 1419.1 1275.12 1138.09 1043.403 -9999 -9999 -9999 -9999 -9999 -9999 -9999 -9999 -9999 -9999 -9999 -9999 -9999 -9999 -9999 -9999 -9999 -9999 -9999 -9999 -9999 -9999 -9999 -9999 -9999 -9999 -9999 -9999 -9999 -9999 -9999 -9999 -9999 -9999 
-9999 -9999 -9999 -9999 -9999 -9999 -9999 -9999 -9999 -9999 -9999 -9999 -9999 -9999 -9999 -9999 -9999 -9999 -9999 -9999 -9999 1427.571 1405.63 1351.25 1257.15 1169.98 1109.42 1204.35 1330.05 1458.82 1532.33 1618.91 1683.87 1692.66 1713.76 1700.35 1689.87 1681.78 1662.5 1607.2 1551.79 1456.25 1421.62 1369.61 1373.37 1395.79 1394.03 1434.85 1457.4 1416.82 1406.03 1373.13 1234.1 1108.15 1061.259 -9999 -9999 -9999 -9999 -9999 -9999 -9999 -9999 -9999 -9999 -9999 -9999 -9999 -9999 -9999 -9999 -9999 -9999 -9999 -9999 -9999 -9999 -9999 -9999 -9999 -9999 -9999 -9999 -9999 -9999 -9999 -9999 -9999 -9999 
-9999 -9999 -9999 -9999 -9999 -9999 -9999 -9999 -9999 -9999 -9999 -9999 -9999 -9999 -9999 -9999 -9999 -9999 -9999 -9999 -9999 1372.516 1280.419 1268.83 1180.93 1068.67 1079 1170.22 1284.14 1391.48 1478.1 1541.77 1603.77 1588.85 1626.42 1588.67 1581.84 1562.33 1536.91 1534.97 1569.32 1610.41 1537.35 1381.52 1294.8 1287.53 1290.75 1336.14 1369.87 1324.13 1319.6 1269.45 1172.39 1043.95 986.75 -9999 -9999 -9999 -9999 -9999 -9999 -9999 -9999 -9999 -9999 -9999 -9999 -9999 -9999 -9999 -9999 -9999 -9999 -9999 -9999 -9999 -9999 -9999 -9999 -9999 -9999 -9999 -9999 -9999 -9999 -9999 -9999 -9999 -9999 
-9999 -9999 -9999 -9999 -9999 -9999 -9999 -9999 -9999 -9999 -9999 -9999 -9999 -9999 -9999 -9999 -9999 -9999 -9999 -9999 -9999 -9999 1199 1142.158 1071.475 1018.96 1121.59 1226.58 1315.64 1377.47 1407.02 1458.01 1492.86 1504.08 1503.99 1464.89 1465.95 1454.26 1421.47 1437.23 1504.92 1598.41 1556.12 1421.41 1270.16 1195.2 1184.52 1246.55 1294.36 1258.38 1199.17 1135.09 1091.64 1019.643 -9999 -9999 -9999 -9999 -9999 -9999 -9999 -9999 -9999 -9999 -9999 -9999 -9999 -9999 -9999 -9999 -9999 -9999 -9999 -9999 -9999 -9999 -9999 -9999 -9999 -9999 -9999 -9999 -9999 -9999 -9999 -9999 -9999 -9999 -9999 
-9999 -9999 -9999 -9999 -9999 -9999 -9999 -9999 -9999 -9999 -9999 -9999 -9999 -9999 -9999 -9999 -9999 -9999 -9999 -9999 -9999 -9999 -9999 -9999 977 1084.35 1189.59 1270.95 1358.86 1306.71 1317.77 1288.03 1341.21 1413.37 1373.4 1355.86 1363.51 1347.48 1334.84 1386.66 1465.82 1579.18 1610.84 1498.51 1326.63 1204.74 1116.75 1129.965 1170.283 1152.667 1083.328 1037.158 1001.222 986 -9999 -9999 -9999 -9999 -9999 -9999 -9999 -9999 -9999 -9999 -9999 -9999 -9999 -9999 -9999 -9999 -9999 -9999 -9999 -9999 -9999 -9999 -9999 -9999 -9999 -9999 -9999 -9999 -9999 -9999 -9999 -9999 -9999 -9999 -9999 
-9999 -9999 -9999 -9999 -9999 -9999 -9999 -9999 -9999 -9999 -9999 -9999 -9999 -9999 -9999 -9999 -9999 -9999 -9999 -9999 -9999 -9999 -9999 -9999 954.0435 1034.25 1144.9 1280.77 1363.22 1260.48 1185.78 1176.57 1267.85 1368.75 1328.14 1252.76 1227.5 1243.41 1289.45 1315.45 1425.03 1525.69 1577.03 1493.29 1341.79 1210.933 -9999 1067.6 1102.8 -9999 -9999 -9999 -9999 -9999 -9999 -9999 -9999 -9999 -9999 -9999 -9999 -9999 -9999 -9999 -9999 -9999 -9999 -9999 -9999 -9999 -9999 -9999 -9999 -9999 -9999 -9999 -9999 -9999 -9999 -9999 -9999 -9999 -9999 -9999 -9999 -9999 -9999 -9999 -9999 
-9999 -9999 -9999 -9999 -9999 -9999 -9999 -9999 -9999 -9999 -9999 -9999 -9999 -9999 -9999 -9999 -9999 -9999 -9999 -9999 -9999 -9999 -9999 -9999 924.5222 1046.16 1162.03 1245.55 1333.29 1254.32 1148.52 1108.16 1175.13 1251.91 1252.69 1226.778 1173.333 1153.207 1192.02 1274.44 1371.94 1413.62 1440.03 1381.96 1248.39 1111.459 -9999 -9999 -9999 -9999 -9999 -9999 -9999 -9999 -9999 -9999 -9999 -9999 -9999 -9999 -9999 -9999 -9999 -9999 -9999 -9999 -9999 -9999 -9999 -9999 -9999 -9999 -9999 -9999 -9999 -9999 -9999 -9999 -9999 -9999 -9999 -9999 -9999 -9999 -9999 -9999 -9999 -9999 -9999 
-9999 -9999 -9999 -9999 -9999 -9999 -9999 -9999 -9999 -9999 -9999 -9999 -9999 -9999 -9999 -9999 -9999 -9999 -9999 -9999 -9999 -9999 -9999 -9999 941.0337 1065.31 1179.28 1269.25 1270.2 1232.35 1163.37 1012.311 1085.813 1152.813 1160.375 1144 1022.067 1081.296 1173.84 1269.07 1302.61 1319.9 1338.33 1300.55 1186.887 1087.65 -9999 -9999 -9999 -9999 -9999 -9999 -9999 -9999 -9999 -9999 -9999 -9999 -9999 -9999 -9999 -9999 -9999 -9999 -9999 -9999 -9999 -9999 -9999 -9999 -9999 -9999 -9999 -9999 -9999 -9999 -9999 -9999 -9999 -9999 -9999 -9999 -9999 -9999 -9999 -9999 -9999 -9999 -9999 
-9999 -9999 -9999 -9999 -9999 -9999 -9999 -9999 -9999 -9999 -9999 -9999 -9999 -9999 -9999 -9999 -9999 -9999 -9999 -9999 -9999 -9999 -9999 -9999 981.0233 1089.264 1161.72 1225.32 1166.72 1127.44 1069.35 969.5735 -9999 -9999 -9999 -9999 983.5 1068.263 1179.982 1201.52 1271.11 1229.52 1253.87 1243.273 1176.345 -9999 -9999 -9999 -9999 -9999 -9999 -9999 -9999 -9999 -9999 -9999 -9999 -9999 -9999 -9999 -9999 -9999 -9999 -9999 -9999 -9999 -9999 -9999 -9999 -9999 -9999 -9999 -9999 -9999 -9999 -9999 -9999 -9999 -9999 -9999 -9999 -9999 -9999 -9999 -9999 -9999 -9999 -9999 -9999 
-9999 -9999 -9999 -9999 -9999 -9999 -9999 -9999 -9999 -9999 -9999 -9999 -9999 -9999 -9999 -9999 -9999 -9999 -9999 -9999 -9999 -9999 -9999 -9999 -9999 1019.741 1079.21 1100.38 1088.13 1044.55 979.35 920.18 853 862 -9999 -9999 -9999 -9999 -9999 1164.706 1204.933 1165.06 1182.143 1190.1 -9999 -9999 -9999 -9999 -9999 -9999 -9999 -9999 -9999 -9999 -9999 -9999 -9999 -9999 -9999 -9999 -9999 -9999 -9999 -9999 -9999 -9999 -9999 -9999 -9999 -9999 -9999 -9999 -9999 -9999 -9999 -9999 -9999 -9999 -9999 -9999 -9999 -9999 -9999 -9999 -9999 -9999 -9999 -9999 -9999 
-9999 -9999 -9999 -9999 -9999 -9999 -9999 -9999 -9999 -9999 -9999 -9999 -9999 -9999 -9999 -9999 -9999 -9999 -9999 -9999 -9999 -9999 -9999 -9999 -9999 1017.97 1076.694 1010.641 1003.11 974.2 942.42 968.78 886.05 805.6222 794.9535 -9999 -9999 -9999 -9999 -9999 1181 1152.211 1136 -9999 -9999 -9999 -9999 -9999 -9999 -9999 -9999 -9999 -9999 -9999 -9999 -9999 -9999 -9999 -9999 -9999 -9999 -9999 -9999 -9999 -9999 -9999 -9999 -9999 -9999 -9999 -9999 -9999 -9999 -9999 -9999 -9999 -9999 -9999 -9999 -9999 -9999 -9999 -9999 -9999 -9999 -9999 -9999 -9999 -9999 
-9999 -9999 -9999 -9999 -9999 -9999 -9999 -9999 -9999 -9999 -9999 -9999 -9999 -9999 -9999 -9999 -9999 -9999 -9999 -9999 -9999 -9999 -9999 -9999 -9999 -9999 -9999 952.2857 886.5397 879.8256 850.72 880.16 896.77 842.24 763.8889 -9999 -9999 -9999 -9999 -9999 -9999 -9999 -9999 -9999 -9999 -9999 -9999 -9999 -9999 -9999 -9999 -9999 -9999 -9999 -9999 -9999 -9999 -9999 -9999 -9999 -9999 -9999 -9999 -9999 -9999 -9999 -9999 -9999 -9999 -9999 -9999 -9999 -9999 -9999 -9999 -9999 -9999 -9999 -9999 -9999 -9999 -9999 -9999 -9999 -9999 -9999 -9999 -9999 -9999 
-9999 -9999 -9999 -9999 -9999 -9999 -9999 -9999 -9999 -9999 -9999 -9999 -9999 -9999 -9999 -9999 -9999 -9999 -9999 -9999 -9999 -9999 -9999 -9999 -9999 -9999 -9999 -9999 -9999 -9999 785.8276 788.7656 815.9048 820.28 -9999 -9999 -9999 -9999 -9999 -9999 -9999 -9999 -9999 -9999 -9999 -9999 -9999 -9999 -9999 -9999 -9999 -9999 -9999 -9999 -9999 -9999 -9999 -9999 -9999 -9999 -9999 -9999 -9999 -9999 -9999 -9999 -9999 -9999 -9999 -9999 -9999 -9999 -9999 -9999 -9999 -9999 -9999 -9999 -9999 -9999 -9999 -9999 -9999 -9999 -9999 -9999 -9999 -9999 -9999 
